ply
format ascii 1.0
element vertex 1203
property float x
property float y
property float z
property uchar red
property uchar green
property uchar blue
end_header
0.0235782 -0.0139634 0.929357 0 255 100
0.0235296 -0.0136389 0.929598 0 255 100
0.023481 -0.0133144 0.929839 0 255 100
0.0234324 -0.0129896 0.93008 0 255 100
0.0253595 -0.013951 0.928537 0 255 100
0.0253035 -0.0136285 0.928885 0 255 100
0.0252474 -0.0133057 0.929233 0 255 100
0.0251912 -0.0129826 0.929581 0 255 100
0.025135 -0.0126594 0.92993 0 255 100
0.0250788 -0.0123358 0.930279 0 255 100
0.0250225 -0.0120121 0.930628 0 255 100
0.0249662 -0.0116881 0.930978 0 255 100
0.0249099 -0.0113638 0.931327 0 255 100
0.0248535 -0.0110393 0.931677 0 255 100
0.0247971 -0.0107146 0.932028 0 255 100
0.0246942 -0.0103701 0.930628 0 255 100
0.0246377 -0.0100455 0.930978 0 255 100
0.0245813 -0.00972059 0.931327 0 255 100
0.0245247 -0.00939547 0.931677 0 255 100
0.0244682 -0.00907012 0.932028 0 255 100
0.0244116 -0.00874451 0.932378 0 255 100
0.0243549 -0.00841866 0.932729 0 255 100
0.0242983 -0.00809257 0.93308 0 255 100
0.0242415 -0.00776623 0.933431 0 255 100
0.0241847 -0.00743965 0.933783 0 255 100
0.0241279 -0.00711281 0.934135 0 255 100
0.0240711 -0.00678574 0.934487 0 255 100
0.0240142 -0.00645841 0.934839 0 255 100
0.0239572 -0.00613084 0.935192 0 255 100
0.0239002 -0.00580302 0.935545 0 255 100
0.0238432 -0.00547496 0.935898 0 255 100
0.0237861 -0.00514664 0.936251 0 255 100
0.023729 -0.00481808 0.936605 0 255 100
0.0236719 -0.00448927 0.936959 0 255 100
0.0236147 -0.00416021 0.937313 0 255 100
0.0235574 -0.00383091 0.937668 0 255 100
0.0235001 -0.00350135 0.938023 0 255 100
0.0234428 -0.00317154 0.938378 0 255 100
0.0233854 -0.00284149 0.938733 0 255 100
0.023328 -0.00251118 0.939089 0 255 100
0.0293314 0.0265131 0.889982 0 255 100
0.0294802 0.0267959 0.888945 0 255 100
0.0296287 0.027078 0.88791 0 255 100
0.0297768 0.0273595 0.886878 0 255 100
0.0299245 0.0276403 0.885848 0 255 100
0.030072 0.0279205 0.884821 0 255 100
0.030219 0.0282 0.883796 0 255 100
0.0303658 0.0284789 0.882773 0 255 100
0.0305122 0.0287571 0.881752 0 255 100
0.0306583 0.0290347 0.880734 0 255 100
0.030804 0.0293117 0.879719 0 255 100
0.0309494 0.029588 0.878705 0 255 100
0.0310944 0.0298636 0.877694 0 255 100
0.0259877 -0.0191129 0.924634 0 255 100
0.0259368 -0.018793 0.92495 0 255 100
0.0258858 -0.018473 0.925267 0 255 100
0.0258348 -0.0181527 0.925583 0 255 100
0.0257837 -0.0178322 0.9259 0 255 100
0.0257326 -0.0175114 0.926217 0 255 100
0.0256815 -0.0171905 0.926535 0 255 100
0.0256303 -0.0168693 0.926852 0 255 100
0.0255791 -0.0165479 0.92717 0 255 100
0.0255279 -0.0162263 0.927488 0 255 100
0.0254766 -0.0159045 0.927806 0 255 100
0.0254253 -0.0155824 0.928124 0 255 100
0.025374 -0.0152601 0.928443 0 255 100
0.0253226 -0.0149376 0.928762 0 255 100
0.0252712 -0.0146149 0.929081 0 255 100
0.0247604 -0.0116785 0.930214 0 255 100
0.0247087 -0.0113541 0.930534 0 255 100
0.024657 -0.0110296 0.930854 0 255 100
0.0256876 -0.0159169 0.92853 0 255 100
0.0265541 -0.0200888 0.924497 0 255 100
0.0265104 -0.0197659 0.924657 0 255 100
0.0264666 -0.019443 0.924817 0 255 100
0.0264228 -0.01912 0.924976 0 255 100
0.026379 -0.0187968 0.925136 0 255 100
0.0263352 -0.0184735 0.925296 0 255 100
0.0262914 -0.0181502 0.925456 0 255 100
0.0262475 -0.0178267 0.925616 0 255 100
0.0262037 -0.0175031 0.925776 0 255 100
0.0261598 -0.0171794 0.925936 0 255 100
0.0261159 -0.0168555 0.926096 0 255 100
0.026072 -0.0165316 0.926256 0 255 100
0.0261566 -0.0107326 0.933598 0 255 100
0.0261153 -0.0104055 0.933803 0 255 100
0.0260739 -0.0100782 0.934008 0 255 100
0.0260326 -0.0097507 0.934213 0 255 100
0.0259912 -0.00942311 0.934418 0 255 100
0.0259498 -0.00909537 0.934623 0 255 100
0.0259084 -0.00876749 0.934829 0 255 100
0.0258669 -0.00843947 0.935034 0 255 100
0.0258254 -0.0081113 0.93524 0 255 100
0.025784 -0.00778299 0.935445 0 255 100
0.0257425 -0.00745453 0.935651 0 255 100
0.025701 -0.00712593 0.935857 0 255 100
0.0256594 -0.00679718 0.936063 0 255 100
0.0256179 -0.00646829 0.936269 0 255 100
0.0255763 -0.00613925 0.936475 0 255 100
0.0255347 -0.00581007 0.936681 0 255 100
0.0254931 -0.00548074 0.936887 0 255 100
0.0254515 -0.00515127 0.937094 0 255 100
0.0254098 -0.00482166 0.9373 0 255 100
0.0253682 -0.0044919 0.937507 0 255 100
0.0253265 -0.00416199 0.937713 0 255 100
0.0252848 -0.00383194 0.93792 0 255 100
0.0252431 -0.00350174 0.938127 0 255 100
0.0252014 -0.00317139 0.938334 0 255 100
0.0251596 -0.0028409 0.938541 0 255 100
0.0251178 -0.00251027 0.938748 0 255 100
0.025076 -0.00217949 0.938955 0 255 100
0.0250342 -0.00184856 0.939162 0 255 100
0.0249924 -0.00151749 0.939369 0 255 100
0.0281448 -0.0229918 0.923169 0 255 100
0.0281092 -0.0226702 0.923338 0 255 100
0.0280737 -0.0223485 0.923508 0 255 100
0.0280381 -0.0220266 0.923678 0 255 100
0.0280025 -0.0217047 0.923848 0 255 100
0.0279669 -0.0213826 0.924017 0 255 100
0.0279312 -0.0210604 0.924187 0 255 100
0.0278956 -0.0207381 0.924358 0 255 100
0.02786 -0.0204157 0.924528 0 255 100
0.0278243 -0.0200931 0.924698 0 255 100
0.0277886 -0.0197705 0.924868 0 255 100
0.0277529 -0.0194477 0.925038 0 255 100
0.0277172 -0.0191248 0.925209 0 255 100
0.0276815 -0.0188017 0.925379 0 255 100
0.0276458 -0.0184786 0.925549 0 255 100
0.0276101 -0.0181553 0.92572 0 255 100
0.0275743 -0.017832 0.925891 0 255 100
0.0287484 -0.0245797 0.921633 0 255 100
0.0287058 -0.0242615 0.921902 0 255 100
0.0286632 -0.0239432 0.92217 0 255 100
0.0286206 -0.0236246 0.922439 0 255 100
0.0284503 -0.0220226 0.923508 0 255 100
0.028406 -0.0217018 0.923727 0 255 100
0.0283616 -0.021381 0.923946 0 255 100
0.0283173 -0.0210599 0.924165 0 255 100
0.0282729 -0.0207387 0.924385 0 255 100
0.0282285 -0.0204174 0.924604 0 255 100
0.0281841 -0.0200959 0.924823 0 255 100
0.0281397 -0.0197742 0.925043 0 255 100
0.0280952 -0.0194524 0.925262 0 255 100
0.0280507 -0.0191304 0.925482 0 255 100
0.0280062 -0.0188083 0.925702 0 255 100
0.0279617 -0.018486 0.925922 0 255 100
0.0279171 -0.0181636 0.926142 0 255 100
0.0278726 -0.017841 0.926362 0 255 100
0.027828 -0.0175183 0.926582 0 255 100
0.0277834 -0.0171954 0.926802 0 255 100
0.0277388 -0.0168724 0.927023 0 255 100
0.0276941 -0.0165492 0.927243 0 255 100
0.0276494 -0.0162259 0.927464 0 255 100
0.0276047 -0.0159024 0.927685 0 255 100
0.02756 -0.0155787 0.927906 0 255 100
0.0275153 -0.0152549 0.928127 0 255 100
0.0274705 -0.014931 0.928348 0 255 100
0.0274258 -0.0146068 0.928569 0 255 100
0.027381 -0.0142826 0.92879 0 255 100
0.0273361 -0.0139582 0.929011 0 255 100
0.0272913 -0.0136336 0.929233 0 255 100
0.0272464 -0.0133089 0.929455 0 255 100
0.0272016 -0.012984 0.929676 0 255 100
0.0271567 -0.0126589 0.929898 0 255 100
0.0271117 -0.0123337 0.93012 0 255 100
0.0270668 -0.0120084 0.930342 0 255 100
0.0270218 -0.0116829 0.930564 0 255 100
0.0269768 -0.0113572 0.930786 0 255 100
0.0269318 -0.0110314 0.931009 0 255 100
0.0268868 -0.0107054 0.931231 0 255 100
0.0268417 -0.0103793 0.931454 0 255 100
0.0267966 -0.010053 0.931676 0 255 100
0.0267515 -0.00972656 0.931899 0 255 100
0.0267064 -0.00939996 0.932122 0 255 100
0.0266613 -0.0090732 0.932345 0 255 100
0.0266161 -0.00874629 0.932568 0 255 100
0.0265709 -0.00841922 0.932791 0 255 100
0.0265257 -0.008092 0.933014 0 255 100
0.0264805 -0.00776462 0.933238 0 255 100
0.0264352 -0.00743708 0.933461 0 255 100
0.02639 -0.00710939 0.933685 0 255 100
0.0263447 -0.00678154 0.933909 0 255 100
0.0262994 -0.00645353 0.934132 0 255 100
0.026254 -0.00612536 0.934356 0 255 100
0.0262087 -0.00579704 0.934581 0 255 100
0.0261633 -0.00546856 0.934805 0 255 100
0.0261179 -0.00513992 0.935029 0 255 100
0.0260724 -0.00481113 0.935253 0 255 100
0.026027 -0.00448217 0.935478 0 255 100
0.0259815 -0.00415306 0.935702 0 255 100
0.025936 -0.00382379 0.935927 0 255 100
0.0258905 -0.00349437 0.936152 0 255 100
0.025845 -0.00316478 0.936377 0 255 100
0.0257994 -0.00283504 0.936602 0 255 100
0.0257539 -0.00250513 0.936827 0 255 100
0.0257083 -0.00217507 0.937052 0 255 100
0.0256626 -0.00184485 0.937277 0 255 100
0.025617 -0.00151447 0.937503 0 255 100
0.0255713 -0.00118393 0.937728 0 255 100
0.0255257 -0.000853237 0.937954 0 255 100
0.02548 -0.000522381 0.93818 0 255 100
0.0254342 -0.000191365 0.938406 0 255 100
0.0253885 0.00013981 0.938632 0 255 100
0.0293914 -0.0248986 0.9214 0 255 100
0.0293451 -0.02458 0.921646 0 255 100
0.0292987 -0.0242613 0.921893 0 255 100
0.0292523 -0.0239424 0.92214 0 255 100
0.0292059 -0.0236233 0.922387 0 255 100
0.0291595 -0.023304 0.922634 0 255 100
0.029113 -0.0229846 0.922881 0 255 100
0.0290665 -0.022665 0.923128 0 255 100
0.02902 -0.0223453 0.923376 0 255 100
0.0289735 -0.0220253 0.923623 0 255 100
0.0289269 -0.0217052 0.923871 0 255 100
0.0288803 -0.0213849 0.924119 0 255 100
0.0288337 -0.0210645 0.924367 0 255 100
0.028787 -0.0207439 0.924615 0 255 100
0.0287404 -0.0204231 0.924863 0 255 100
0.0286937 -0.0201021 0.925112 0 255 100
0.028647 -0.019781 0.92536 0 255 100
0.0286002 -0.0194597 0.925609 0 255 100
0.0285535 -0.0191382 0.925858 0 255 100
0.0285067 -0.0188165 0.926106 0 255 100
0.0284599 -0.0184947 0.926355 0 255 100
0.028413 -0.0181727 0.926605 0 255 100
0.0283661 -0.0178505 0.926854 0 255 100
0.0283193 -0.0175282 0.927103 0 255 100
0.0282723 -0.0172056 0.927353 0 255 100
0.0282254 -0.016883 0.927603 0 255 100
0.0281784 -0.0165601 0.927852 0 255 100
0.0281314 -0.016237 0.928102 0 255 100
0.0280844 -0.0159138 0.928353 0 255 100
0.0280374 -0.0155904 0.928603 0 255 100
0.0279903 -0.0152669 0.928853 0 255 100
0.0279432 -0.0149431 0.929104 0 255 100
0.0278961 -0.0146192 0.929354 0 255 100
0.027849 -0.0142951 0.929605 0 255 100
0.0278018 -0.0139709 0.929856 0 255 100
0.0277546 -0.0136464 0.930107 0 255 100
0.0277074 -0.0133218 0.930358 0 255 100
0.0276601 -0.012997 0.93061 0 255 100
0.0276129 -0.012672 0.930861 0 255 100
0.0372384 -0.0435328 0.883848 0 255 100
0.0372015 -0.0432325 0.884084 0 255 100
0.0371647 -0.042932 0.884321 0 255 100
0.0371278 -0.0426314 0.884558 0 255 100
0.0370909 -0.0423306 0.884794 0 255 100
0.037054 -0.0420296 0.885031 0 255 100
0.037017 -0.0417285 0.885268 0 255 100
0.0369801 -0.0414272 0.885505 0 255 100
0.0369431 -0.0411257 0.885743 0 255 100
0.0369061 -0.0408241 0.88598 0 255 100
0.0368691 -0.0405223 0.886218 0 255 100
0.0368321 -0.0402204 0.886455 0 255 100
0.036795 -0.0399183 0.886693 0 255 100
0.0367579 -0.039616 0.886931 0 255 100
0.0286241 0.0174969 0.928147 0 255 100
0.0286396 0.0178217 0.928006 0 255 100
0.0286551 0.0181464 0.927865 0 255 100
0.0286706 0.018471 0.927725 0 255 100
0.0286861 0.0187956 0.927584 0 255 100
0.0287016 0.01912 0.927444 0 255 100
0.028717 0.0194443 0.927303 0 255 100
0.0287325 0.0197685 0.927163 0 255 100
0.028748 0.0200927 0.927022 0 255 100
0.0287635 0.0204167 0.926882 0 255 100
0.0287789 0.0207406 0.926741 0 255 100
0.0287944 0.0210645 0.926601 0 255 100
0.0288098 0.0213882 0.926461 0 255 100
0.0288253 0.0217118 0.926321 0 255 100
0.0288407 0.0220354 0.92618 0 255 100
0.0288562 0.0223588 0.92604 0 255 100
0.0288716 0.0226822 0.9259 0 255 100
0.028887 0.0230054 0.92576 0 255 100
0.0289025 0.0233286 0.92562 0 255 100
0.0289179 0.0236516 0.92548 0 255 100
0.0289333 0.0239746 0.92534 0 255 100
0.0289487 0.0242974 0.9252 0 255 100
0.0289641 0.0246202 0.925061 0 255 100
0.0289795 0.0249429 0.924921 0 255 100
0.0289949 0.0252654 0.924781 0 255 100
0.0290103 0.0255879 0.924641 0 255 100
0.0290257 0.0259103 0.924502 0 255 100
0.0290411 0.0262325 0.924362 0 255 100
0.0290565 0.0265547 0.924222 0 255 100
0.0290719 0.0268768 0.924083 0 255 100
0.0290872 0.0271988 0.923943 0 255 100
0.0291026 0.0275207 0.923804 0 255 100
0.029118 0.0278424 0.923664 0 255 100
0.0291333 0.0281641 0.923525 0 255 100
0.0285138 -0.00679145 0.935273 0 255 100
0.0284702 -0.00646222 0.93539 0 255 100
0.0284266 -0.0061329 0.935506 0 255 100
0.028383 -0.0058035 0.935622 0 255 100
0.0283393 -0.00547403 0.935739 0 255 100
0.0282957 -0.00514447 0.935855 0 255 100
0.028252 -0.00481482 0.935972 0 255 100
0.0282083 -0.0044851 0.936088 0 255 100
0.0281646 -0.00415529 0.936205 0 255 100
0.028121 -0.0038254 0.936321 0 255 100
0.0280773 -0.00349543 0.936438 0 255 100
0.0280335 -0.00316538 0.936555 0 255 100
0.0326812 0.0245567 0.89884 0 255 100
0.0328601 0.0248426 0.89771 0 255 100
0.0330386 0.0251278 0.896583 0 255 100
0.0332166 0.0254123 0.895458 0 255 100
0.0333941 0.025696 0.894337 0 255 100
0.0335712 0.0259791 0.893218 0 255 100
0.0337479 0.0262614 0.892102 0 255 100
0.0339241 0.0265431 0.890989 0 255 100
0.0340999 0.026824 0.889878 0 255 100
0.0343419 0.0271569 0.890497 0 255 100
0.0344499 0.0272273 0.88767 0 255 100
0.0346902 0.0275586 0.888254 0 255 100
0.0347983 0.0276285 0.88547 0 255 100
0.035037 0.0279583 0.886018 0 255 100
0.0352091 0.0282349 0.884888 0 255 100
0.0353808 0.0285108 0.883761 0 255 100
0.0354903 0.0285803 0.881098 0 255 100
0.0286263 0.0168431 0.928218 0 255 100
0.0288146 0.0171478 0.926981 0 255 100
0.0385546 -0.041111 0.885426 0 255 100
0.0385059 -0.0408131 0.885743 0 255 100
0.0384571 -0.0405151 0.886059 0 255 100
0.0327007 -0.0213598 0.923034 0 255 100
0.0326592 -0.0210397 0.923278 0 255 100
0.0326178 -0.0207194 0.923523 0 255 100
0.0325763 -0.0203989 0.923768 0 255 100
0.0325347 -0.0200782 0.924013 0 255 100
0.0324932 -0.0197574 0.924258 0 255 100
0.0324516 -0.0194364 0.924504 0 255 100
0.03241 -0.0191153 0.924749 0 255 100
0.0323684 -0.0187939 0.924995 0 255 100
0.0323268 -0.0184724 0.92524 0 255 100
0.0322852 -0.0181508 0.925486 0 255 100
0.0322435 -0.0178289 0.925732 0 255 100
0.0322018 -0.0175069 0.925978 0 255 100
0.0321601 -0.0171847 0.926224 0 255 100
0.0321183 -0.0168624 0.926471 0 255 100
0.0320765 -0.0165398 0.926717 0 255 100
0.0320348 -0.0162171 0.926964 0 255 100
0.031993 -0.0158942 0.927211 0 255 100
0.0319511 -0.0155712 0.927457 0 255 100
0.0319093 -0.015248 0.927704 0 255 100
0.0318674 -0.0149246 0.927952 0 255 100
0.0318255 -0.014601 0.928199 0 255 100
0.0317836 -0.0142773 0.928446 0 255 100
0.0317416 -0.0139534 0.928694 0 255 100
0.0316996 -0.0136293 0.928942 0 255 100
0.0316577 -0.0133051 0.929189 0 255 100
0.0316157 -0.0129806 0.929437 0 255 100
0.0393815 -0.0434885 0.882949 0 255 100
0.0393468 -0.0431845 0.883102 0 255 100
0.039312 -0.0428803 0.883256 0 255 100
0.0392773 -0.042576 0.88341 0 255 100
0.0392426 -0.0422717 0.883563 0 255 100
0.0392078 -0.0419672 0.883717 0 255 100
0.0391731 -0.0416626 0.883871 0 255 100
0.0391383 -0.0413579 0.884024 0 255 100
0.0391035 -0.0410531 0.884178 0 255 100
0.0390687 -0.0407482 0.884332 0 255 100
0.0390339 -0.0404431 0.884486 0 255 100
0.0389991 -0.040138 0.88464 0 255 100
0.0389642 -0.0398328 0.884794 0 255 100
0.0389319 -0.03953 0.885005 0 255 100
0.0388995 -0.039227 0.885216 0 255 100
0.0305208 -0.00712772 0.936093 0 255 100
0.0304898 -0.00679868 0.936269 0 255 100
0.0304588 -0.00646951 0.936445 0 255 100
0.0304278 -0.00614021 0.936621 0 255 100
0.0303968 -0.00581079 0.936798 0 255 100
0.0303658 -0.00548125 0.936974 0 255 100
0.0303348 -0.00515159 0.937151 0 255 100
0.0303037 -0.0048218 0.937327 0 255 100
0.0302727 -0.00449188 0.937504 0 255 100
0.0302416 -0.00416184 0.93768 0 255 100
0.0302106 -0.00383168 0.937857 0 255 100
0.0301795 -0.00350139 0.938034 0 255 100
0.0301484 -0.00317098 0.93821 0 255 100
0.0301172 -0.00284044 0.938387 0 255 100
0.0300861 -0.00250978 0.938564 0 255 100
0.030055 -0.00217899 0.938741 0 255 100
0.0300239 -0.00184808 0.938918 0 255 100
0.0299927 -0.00151705 0.939095 0 255 100
0.0299615 -0.00118588 0.939273 0 255 100
0.0332857 -0.0133207 0.930279 0 255 100
0.033244 -0.0129962 0.930553 0 255 100
0.0338791 -0.0136233 0.92853 0 255 100
0.033835 -0.0132998 0.92882 0 255 100
0.0337909 -0.0129761 0.92911 0 255 100
0.0337468 -0.0126521 0.9294 0 255 100
0.0337027 -0.012328 0.929691 0 255 100
0.0336585 -0.0120037 0.929981 0 255 100
0.0336143 -0.0116792 0.930272 0 255 100
0.0335701 -0.0113545 0.930563 0 255 100
0.0335259 -0.0110296 0.930854 0 255 100
0.0334816 -0.0107044 0.931146 0 255 100
0.0334373 -0.0103791 0.931437 0 255 100
0.033393 -0.0100536 0.931729 0 255 100
0.0333486 -0.00972782 0.932021 0 255 100
0.0333043 -0.00940188 0.932313 0 255 100
0.0332599 -0.00907573 0.932605 0 255 100
0.0332154 -0.00874938 0.932897 0 255 100
0.0331709 -0.00842283 0.93319 0 255 100
0.0331265 -0.00809606 0.933483 0 255 100
0.0330819 -0.0077691 0.933776 0 255 100
0.0330374 -0.00744193 0.934069 0 255 100
0.0329928 -0.00711455 0.934362 0 255 100
0.0329482 -0.00678696 0.934656 0 255 100
0.0329036 -0.00645918 0.93495 0 255 100
0.0328589 -0.00613118 0.935244 0 255 100
0.0328142 -0.00580298 0.935538 0 255 100
0.0327695 -0.00547457 0.935832 0 255 100
0.0327248 -0.00514596 0.936126 0 255 100
0.03268 -0.00481714 0.936421 0 255 100
0.0326352 -0.00448811 0.936716 0 255 100
0.0325904 -0.00415887 0.937011 0 255 100
0.0325455 -0.00382943 0.937306 0 255 100
0.0353185 -0.0210413 0.92335 0 255 100
0.0352752 -0.0207219 0.923636 0 255 100
0.0352318 -0.0204023 0.923923 0 255 100
0.0351884 -0.0200825 0.92421 0 255 100
0.0351449 -0.0197625 0.924497 0 255 100
0.0351015 -0.0194423 0.924785 0 255 100
0.035058 -0.019122 0.925072 0 255 100
0.0350145 -0.0188014 0.92536 0 255 100
0.0349709 -0.0184806 0.925648 0 255 100
0.0349273 -0.0181596 0.925936 0 255 100
0.0348837 -0.0178384 0.926224 0 255 100
0.0348401 -0.017517 0.926513 0 255 100
0.0347965 -0.0171954 0.926801 0 255 100
0.0347528 -0.0168736 0.92709 0 255 100
0.0347091 -0.0165516 0.927379 0 255 100
0.0346653 -0.0162294 0.927668 0 255 100
0.0346216 -0.0159071 0.927958 0 255 100
0.0345778 -0.0155845 0.928247 0 255 100
0.0347291 -0.00974622 0.933783 0 255 100
0.0346878 -0.00941948 0.934058 0 255 100
0.0346465 -0.00909255 0.934333 0 255 100
0.0346052 -0.00876542 0.934608 0 255 100
0.0345638 -0.00843811 0.934883 0 255 100
0.0345224 -0.0081106 0.935159 0 255 100
0.034481 -0.0077829 0.935434 0 255 100
0.0344396 -0.007455 0.93571 0 255 100
0.0343982 -0.00712691 0.935986 0 255 100
0.0343567 -0.00679863 0.936263 0 255 100
0.0343152 -0.00647015 0.936539 0 255 100
0.0342737 -0.00614148 0.936815 0 255 100
0.0342321 -0.00581262 0.937092 0 255 100
0.0341905 -0.00548356 0.937369 0 255 100
0.034149 -0.00515431 0.937646 0 255 100
0.0341073 -0.00482486 0.937923 0 255 100
0.0340657 -0.00449522 0.9382 0 255 100
0.034024 -0.00416538 0.938478 0 255 100
0.0339823 -0.00383535 0.938755 0 255 100
0.0339406 -0.00350512 0.939033 0 255 100
0.0338988 -0.0031747 0.939311 0 255 100
0.0338571 -0.00284408 0.939589 0 255 100
0.0338153 -0.00251326 0.939867 0 255 100
0.0337735 -0.00218225 0.940146 0 255 100
0.0337316 -0.00185105 0.940424 0 255 100
0.0336898 -0.00151964 0.940703 0 255 100
0.0336479 -0.00118804 0.940982 0 255 100
0.0336059 -0.000856246 0.941261 0 255 100
0.033564 -0.000524252 0.94154 0 255 100
0.033522 -0.000192062 0.94182 0 255 100
0.03348 0.000140326 0.9421 0 255 100
0.033438 0.000472912 0.942379 0 255 100
0.042304 -0.0404861 0.885426 0 255 100
0.0422493 -0.0401902 0.885791 0 255 100
0.0421946 -0.0398941 0.886157 0 255 100
0.0421398 -0.0395977 0.886522 0 255 100
0.0420849 -0.0393011 0.886888 0 255 100
0.0420301 -0.0390043 0.887255 0 255 100
0.0419751 -0.0387072 0.887621 0 255 100
0.0347946 -0.00580302 0.935545 0 255 100
0.034763 -0.00580453 0.935787 0 255 100
0.0368718 -0.0188152 0.926039 0 255 100
0.0368355 -0.0184932 0.926282 0 255 100
0.0367991 -0.0181712 0.926526 0 255 100
0.0367628 -0.0178489 0.92677 0 255 100
0.0367264 -0.0175265 0.927014 0 255 100
0.03669 -0.0172039 0.927258 0 255 100
0.0366535 -0.0168811 0.927503 0 255 100
0.0366171 -0.0165582 0.927747 0 255 100
0.0365806 -0.0162351 0.927991 0 255 100
0.0365441 -0.0159118 0.928236 0 255 100
0.0365076 -0.0155884 0.928481 0 255 100
0.0364711 -0.0152648 0.928726 0 255 100
0.0364345 -0.014941 0.928971 0 255 100
0.036398 -0.014617 0.929216 0 255 100
0.0363614 -0.0142929 0.929462 0 255 100
0.0363248 -0.0139686 0.929707 0 255 100
0.0362882 -0.0136441 0.929953 0 255 100
0.0362515 -0.0133195 0.930198 0 255 100
0.0362149 -0.0129947 0.930444 0 255 100
0.0361782 -0.0126697 0.93069 0 255 100
0.0361415 -0.0123446 0.930936 0 255 100
0.0361047 -0.0120192 0.931182 0 255 100
0.036068 -0.0116937 0.931429 0 255 100
0.0360312 -0.0113681 0.931675 0 255 100
0.0359945 -0.0110422 0.931922 0 255 100
0.0359577 -0.0107162 0.932169 0 255 100
0.0359209 -0.01039 0.932416 0 255 100
0.035884 -0.0100636 0.932663 0 255 100
0.0358472 -0.0097371 0.93291 0 255 100
0.0358103 -0.0094104 0.933157 0 255 100
0.0357734 -0.00908351 0.933405 0 255 100
0.0357365 -0.00875646 0.933652 0 255 100
0.0356995 -0.00842923 0.9339 0 255 100
0.0356626 -0.00810183 0.934148 0 255 100
0.0356256 -0.00777425 0.934395 0 255 100
0.0355886 -0.0074465 0.934644 0 255 100
0.0355516 -0.00711858 0.934892 0 255 100
0.0355146 -0.00679048 0.93514 0 255 100
0.0354775 -0.00646221 0.935389 0 255 100
0.0354404 -0.00613376 0.935637 0 255 100
0.0354033 -0.00580514 0.935886 0 255 100
0.0353662 -0.00547634 0.936135 0 255 100
0.0353291 -0.00514737 0.936384 0 255 100
0.0352919 -0.00481823 0.936633 0 255 100
0.0352548 -0.0044889 0.936882 0 255 100
0.0352176 -0.00415941 0.937132 0 255 100
0.0351804 -0.00382973 0.937381 0 255 100
0.0351431 -0.00349989 0.937631 0 255 100
0.0351059 -0.00316986 0.93788 0 255 100
0.0350686 -0.00283966 0.93813 0 255 100
0.0350313 -0.00250929 0.938381 0 255 100
0.034994 -0.00217874 0.938631 0 255 100
0.0349567 -0.00184801 0.938881 0 255 100
0.0349193 -0.0015171 0.939132 0 255 100
0.034882 -0.00118602 0.939382 0 255 100
0.0348446 -0.000854764 0.939633 0 255 100
0.0348072 -0.00052333 0.939884 0 255 100
0.0383223 -0.0207541 0.925072 0 255 100
0.0382844 -0.0204334 0.925329 0 255 100
0.0382464 -0.0201124 0.925587 0 255 100
0.0382083 -0.0197913 0.925844 0 255 100
0.0381703 -0.01947 0.926102 0 255 100
0.0381322 -0.0191486 0.926359 0 255 100
0.0380941 -0.0188269 0.926617 0 255 100
0.038056 -0.0185051 0.926875 0 255 100
0.0380179 -0.0181831 0.927133 0 255 100
0.0379797 -0.0178609 0.927392 0 255 100
0.0379416 -0.0175385 0.92765 0 255 100
0.0379034 -0.017216 0.927909 0 255 100
0.0378652 -0.0168932 0.928167 0 255 100
0.037827 -0.0165703 0.928426 0 255 100
0.0377887 -0.0162472 0.928685 0 255 100
0.0376798 -0.0158942 0.927207 0 255 100
0.0376416 -0.0155713 0.927465 0 255 100
0.0376033 -0.0152483 0.927724 0 255 100
0.037565 -0.0149251 0.927982 0 255 100
0.0375267 -0.0146017 0.928241 0 255 100
0.0374884 -0.0142781 0.9285 0 255 100
0.03745 -0.0139544 0.928759 0 255 100
0.0374116 -0.0136304 0.929018 0 255 100
0.0373732 -0.0133063 0.929278 0 255 100
0.0373348 -0.012982 0.929537 0 255 100
0.0372964 -0.0126575 0.929797 0 255 100
0.0372579 -0.0123329 0.930056 0 255 100
0.0372194 -0.012008 0.930316 0 255 100
0.0371809 -0.011683 0.930576 0 255 100
0.0371424 -0.0113578 0.930836 0 255 100
0.0371039 -0.0110324 0.931097 0 255 100
0.0370653 -0.0107069 0.931357 0 255 100
0.0370267 -0.0103811 0.931618 0 255 100
0.0369881 -0.0100552 0.931879 0 255 100
0.0369495 -0.00972906 0.93214 0 255 100
0.0369108 -0.00940277 0.932401 0 255 100
0.0368721 -0.00907629 0.932662 0 255 100
0.0368334 -0.00874962 0.932923 0 255 100
0.0367947 -0.00842278 0.933185 0 255 100
0.036756 -0.00809575 0.933446 0 255 100
0.0367172 -0.00776853 0.933708 0 255 100
0.0366784 -0.00744114 0.93397 0 255 100
0.0366396 -0.00711356 0.934232 0 255 100
0.0366008 -0.00678579 0.934494 0 255 100
0.0365619 -0.00645784 0.934757 0 255 100
0.0365231 -0.00612971 0.935019 0 255 100
0.0364842 -0.00580139 0.935282 0 255 100
0.0364453 -0.00547289 0.935545 0 255 100
0.0381138 -0.0165617 0.927943 0 255 100
0.0380788 -0.0162379 0.928153 0 255 100
0.0380437 -0.015914 0.928362 0 255 100
0.0380086 -0.0155899 0.928572 0 255 100
0.0379735 -0.0152657 0.928782 0 255 100
0.0379384 -0.0149413 0.928992 0 255 100
0.0379032 -0.0146168 0.929202 0 255 100
0.0378681 -0.0142921 0.929412 0 255 100
0.0378329 -0.0139673 0.929623 0 255 100
0.0377977 -0.0136424 0.929833 0 255 100
0.0377625 -0.0133173 0.930043 0 255 100
0.0377273 -0.012992 0.930254 0 255 100
0.0376921 -0.0126666 0.930465 0 255 100
0.0376568 -0.0123411 0.930676 0 255 100
0.0376215 -0.0120154 0.930886 0 255 100
0.0375862 -0.0116896 0.931097 0 255 100
0.0375509 -0.0113636 0.931308 0 255 100
0.0375156 -0.0110374 0.931519 0 255 100
0.0374803 -0.0107112 0.931731 0 255 100
0.037445 -0.0103847 0.931942 0 255 100
0.0374096 -0.0100581 0.932154 0 255 100
0.0373742 -0.00973142 0.932365 0 255 100
0.0373388 -0.00940454 0.932577 0 255 100
0.0373034 -0.00907752 0.932788 0 255 100
0.037268 -0.00875034 0.933 0 255 100
0.0372325 -0.00842302 0.933212 0 255 100
0.0371971 -0.00809555 0.933424 0 255 100
0.0371616 -0.00776793 0.933636 0 255 100
0.0371261 -0.00744017 0.933848 0 255 100
0.0370906 -0.00711225 0.934061 0 255 100
0.0370551 -0.00678418 0.934273 0 255 100
0.0370195 -0.00645597 0.934485 0 255 100
0.036984 -0.0061276 0.934698 0 255 100
0.0369484 -0.00579909 0.934911 0 255 100
0.0369128 -0.00547043 0.935123 0 255 100
0.0368772 -0.00514161 0.935336 0 255 100
0.0368416 -0.00481265 0.935549 0 255 100
0.036806 -0.00448354 0.935762 0 255 100
0.0367703 -0.00415428 0.935975 0 255 100
0.0367346 -0.00382486 0.936189 0 255 100
0.0366989 -0.0034953 0.936402 0 255 100
0.0366632 -0.00316559 0.936616 0 255 100
0.0366275 -0.00283572 0.936829 0 255 100
0.0365918 -0.00250571 0.937043 0 255 100
0.036556 -0.00217555 0.937257 0 255 100
0.0365203 -0.00184523 0.93747 0 255 100
0.0364845 -0.00151477 0.937684 0 255 100
0.0364487 -0.00118415 0.937898 0 255 100
0.0364129 -0.000853381 0.938113 0 255 100
0.036377 -0.000522463 0.938327 0 255 100
0.0363412 -0.000191393 0.938541 0 255 100
0.0363053 0.000139828 0.938755 0 255 100
0.0362694 0.000471201 0.93897 0 255 100
0.0445195 -0.0414499 0.885991 0 255 100
0.0444778 -0.0411469 0.886199 0 255 100
0.0444361 -0.0408437 0.886406 0 255 100
0.0443943 -0.0405404 0.886614 0 255 100
0.0443526 -0.040237 0.886821 0 255 100
0.0443108 -0.0399334 0.887029 0 255 100
0.044269 -0.0396297 0.887237 0 255 100
0.0442272 -0.0393258 0.887445 0 255 100
0.0441854 -0.0390218 0.887653 0 255 100
0.0441435 -0.0387176 0.887861 0 255 100
0.0441016 -0.0384133 0.888069 0 255 100
0.0405462 -0.0207228 0.923677 0 255 100
0.0405174 -0.0204036 0.923981 0 255 100
0.0404887 -0.0200842 0.924286 0 255 100
0.0404599 -0.0197645 0.92459 0 255 100
0.0404312 -0.0194447 0.924895 0 255 100
0.0404024 -0.0191246 0.9252 0 255 100
0.0403735 -0.0188043 0.925505 0 255 100
0.0403447 -0.0184838 0.92581 0 255 100
0.0403158 -0.0181631 0.926116 0 255 100
0.040287 -0.0178422 0.926421 0 255 100
0.0402581 -0.0175211 0.926727 0 255 100
0.0402291 -0.0171997 0.927033 0 255 100
0.0402002 -0.0168782 0.927339 0 255 100
0.0401713 -0.0165564 0.927646 0 255 100
0.0401423 -0.0162344 0.927952 0 255 100
0.0401133 -0.0159122 0.928259 0 255 100
0.0400843 -0.0155898 0.928566 0 255 100
0.0400553 -0.0152672 0.928874 0 255 100
0.0396959 -0.011364 0.931343 0 255 100
0.0396632 -0.011038 0.931569 0 255 100
0.0396303 -0.0107119 0.931795 0 255 100
0.0395975 -0.0103856 0.932021 0 255 100
0.0419131 -0.0197748 0.925072 0 255 100
0.0418777 -0.0194536 0.925319 0 255 100
0.0418422 -0.0191322 0.925566 0 255 100
0.0418067 -0.0188106 0.925813 0 255 100
0.0417711 -0.0184888 0.92606 0 255 100
0.0417356 -0.0181669 0.926307 0 255 100
0.0417 -0.0178447 0.926554 0 255 100
0.0416644 -0.0175225 0.926801 0 255 100
0.0416288 -0.0172 0.927049 0 255 100
0.0415932 -0.0168774 0.927297 0 255 100
0.0415576 -0.0165546 0.927545 0 255 100
0.0415219 -0.0162316 0.927792 0 255 100
0.0414862 -0.0159085 0.928041 0 255 100
0.0414505 -0.0155852 0.928289 0 255 100
0.0414148 -0.0152617 0.928537 0 255 100
0.0413791 -0.014938 0.928786 0 255 100
0.0413433 -0.0146142 0.929034 0 255 100
0.0413075 -0.0142902 0.929283 0 255 100
0.0412717 -0.013966 0.929532 0 255 100
0.0412359 -0.0136416 0.929781 0 255 100
0.0412001 -0.0133171 0.93003 0 255 100
0.0411642 -0.0129924 0.930279 0 255 100
0.0411284 -0.0126675 0.930529 0 255 100
0.0410925 -0.0123425 0.930778 0 255 100
0.0410566 -0.0120172 0.931028 0 255 100
0.0410206 -0.0116918 0.931278 0 255 100
0.0409847 -0.0113662 0.931527 0 255 100
0.0409487 -0.0110405 0.931777 0 255 100
0.0409127 -0.0107146 0.932028 0 255 100
0.0408767 -0.0103885 0.932278 0 255 100
0.0408407 -0.0100622 0.932529 0 255 100
0.0408046 -0.00973574 0.932779 0 255 100
0.0407686 -0.00940911 0.93303 0 255 100
0.0407325 -0.00908231 0.933281 0 255 100
0.0406964 -0.00875533 0.933532 0 255 100
0.0406603 -0.00842818 0.933783 0 255 100
0.0406241 -0.00810085 0.934034 0 255 100
0.040588 -0.00777334 0.934286 0 255 100
0.0405518 -0.00744565 0.934537 0 255 100
0.0405156 -0.0071178 0.934789 0 255 100
0.0404793 -0.00678976 0.935041 0 255 100
0.0404431 -0.00646155 0.935293 0 255 100
0.0404068 -0.00613316 0.935545 0 255 100
0.040737 -0.00547289 0.935545 0 255 100
0.0407024 -0.00514408 0.935786 0 255 100
0.0406679 -0.00481511 0.936027 0 255 100
0.0406333 -0.00448596 0.936268 0 255 100
0.0405987 -0.00415664 0.936509 0 255 100
0.0405641 -0.00382716 0.93675 0 255 100
0.0405294 -0.0034975 0.936991 0 255 100
0.0404948 -0.00316767 0.937233 0 255 100
0.0404601 -0.00283768 0.937474 0 255 100
0.0412417 -0.00923454 0.932026 0 255 100
0.0411788 -0.00890984 0.932464 0 255 100
0.0411159 -0.00858483 0.932903 0 255 100
0.0410529 -0.00825952 0.933342 0 255 100
0.0409899 -0.0079339 0.933781 0 255 100
0.0409267 -0.00760797 0.934221 0 255 100
0.0408636 -0.00728173 0.934661 0 255 100
0.0408003 -0.00695519 0.935102 0 255 100
0.0407371 -0.00662834 0.935543 0 255 100
0.0406737 -0.00630118 0.935984 0 255 100
0.0406103 -0.00597371 0.936426 0 255 100
0.0439538 -0.0198118 0.926801 0 255 100
0.0439293 -0.0194884 0.926975 0 255 100
0.0439048 -0.0191649 0.927148 0 255 100
0.0438803 -0.0188412 0.927321 0 255 100
0.0438557 -0.0185174 0.927495 0 255 100
0.0438312 -0.0181936 0.927668 0 255 100
0.0438067 -0.0178696 0.927842 0 255 100
0.0437821 -0.0175454 0.928016 0 255 100
0.0437576 -0.0172212 0.928189 0 255 100
0.043733 -0.0168968 0.928363 0 255 100
0.0437084 -0.0165723 0.928537 0 255 100
0.0436838 -0.0162477 0.928711 0 255 100
0.0436592 -0.0159229 0.928885 0 255 100
0.0436346 -0.0155981 0.929059 0 255 100
0.04361 -0.0152731 0.929233 0 255 100
0.0435854 -0.014948 0.929407 0 255 100
0.0435608 -0.0146228 0.929582 0 255 100
0.0435361 -0.0142974 0.929756 0 255 100
0.0435115 -0.013972 0.92993 0 255 100
0.0434868 -0.0136464 0.930105 0 255 100
0.0434621 -0.0133207 0.930279 0 255 100
0.0434375 -0.0129948 0.930454 0 255 100
0.0434128 -0.0126689 0.930628 0 255 100
0.0433881 -0.0123428 0.930803 0 255 100
0.0433634 -0.0120166 0.930978 0 255 100
0.0450834 0.0208354 0.916523 0 255 100
0.0452572 0.0211305 0.915296 0 255 100
0.0454306 0.0214248 0.914073 0 255 100
0.0456035 0.0217183 0.912853 0 255 100
0.0457759 0.022011 0.911636 0 255 100
0.0459479 0.022303 0.910422 0 255 100
0.0461194 0.0225942 0.909212 0 255 100
0.0462905 0.0228846 0.908005 0 255 100
0.0464611 0.0231743 0.906801 0 255 100
0.0466313 0.0234631 0.9056 0 255 100
0.046801 0.0237513 0.904403 0 255 100
0.0469703 0.0240386 0.903208 0 255 100
0.0471391 0.0243252 0.902017 0 255 100
0.0473074 0.024611 0.900829 0 255 100
0.0474754 0.0248961 0.899644 0 255 100
0.0476429 0.0251805 0.898462 0 255 100
0.0478099 0.0254641 0.897283 0 255 100
0.0479765 0.0257469 0.896108 0 255 100
0.0481427 0.026029 0.894935 0 255 100
0.0483085 0.0263104 0.893766 0 255 100
0.0484738 0.026591 0.892599 0 255 100
0.0486386 0.026871 0.891436 0 255 100
0.0439538 0.0177986 0.926801 0 255 100
0.0441066 0.0181045 0.92572 0 255 100
0.0441768 0.0183754 0.92292 0 255 100
0.0443288 0.0186793 0.921848 0 255 100
0.0444804 0.0189826 0.920778 0 255 100
0.0446317 0.0192851 0.91971 0 255 100
0.0447826 0.0195869 0.918645 0 255 100
0.0449332 0.0198881 0.917583 0 255 100
0.0450834 0.0201885 0.916523 0 255 100
0.0452333 0.0204883 0.915465 0 255 100
0.0495788 -0.0399325 0.88701 0 255 100
0.0495564 -0.0396266 0.887169 0 255 100
0.0495339 -0.0393206 0.887328 0 255 100
0.0495115 -0.0390145 0.887487 0 255 100
0.049489 -0.0387082 0.887645 0 255 100
0.0494665 -0.0384019 0.887804 0 255 100
0.0494441 -0.0380954 0.887963 0 255 100
0.0494216 -0.0377888 0.888122 0 255 100
0.0493991 -0.0374821 0.888282 0 255 100
0.0493766 -0.0371753 0.888441 0 255 100
0.0493541 -0.0368684 0.8886 0 255 100
0.0523639 -0.0341688 0.891796 0 255 100
0.0523455 -0.0338592 0.89193 0 255 100
0.0523271 -0.0335495 0.892064 0 255 100
0.0537996 0.0263507 0.895134 0 255 100
0.0539509 0.0266333 0.894016 0 255 100
0.0541018 0.0269151 0.892902 0 255 100
0.0542523 0.0271963 0.89179 0 255 100
0.0544024 0.0274768 0.890681 0 255 100
0.0545521 0.0277566 0.889575 0 255 100
0.0547015 0.0280357 0.888471 0 255 100
0.0548505 0.0283141 0.88737 0 255 100
0.0549992 0.0285918 0.886272 0 255 100
0.0551474 0.0288688 0.885177 0 255 100
0.0552953 0.0291451 0.884084 0 255 100
0.0554429 0.0294208 0.882994 0 255 100
0.0555901 0.0296958 0.881907 0 255 100
0.0557369 0.0299701 0.880822 0 255 100
0.0558833 0.0302437 0.87974 0 255 100
0.0560294 0.0305167 0.878661 0 255 100
0.0561752 0.0307889 0.877585 0 255 100
0.055541 0.0312646 0.882269 0 255 100
0.055541 0.031576 0.882269 0 255 100
0.055541 0.0318873 0.882269 0 255 100
0.0543711 -0.0368684 0.8886 0 255 100
0.0543557 -0.0365596 0.888714 0 255 100
0.0543402 -0.0362506 0.888828 0 255 100
0.0543248 -0.0359415 0.888941 0 255 100
0.0543093 -0.0356324 0.889055 0 255 100
0.0542939 -0.0353232 0.889169 0 255 100
0.0542784 -0.0350139 0.889283 0 255 100
0.054263 -0.0347046 0.889397 0 255 100
0.0542475 -0.0343951 0.889511 0 255 100
0.054232 -0.0340856 0.889625 0 255 100
0.0542165 -0.033776 0.889739 0 255 100
0.0542011 -0.0334663 0.889853 0 255 100
0.0541856 -0.0331566 0.889967 0 255 100
0.0541701 -0.0328467 0.890081 0 255 100
0.0541546 -0.0325368 0.890195 0 255 100
0.0557704 0.0210421 0.911468 0 255 100
0.0558981 0.0213408 0.910492 0 255 100
0.0560255 0.021639 0.909518 0 255 100
0.0561526 0.0219364 0.908546 0 255 100
0.0562795 0.0222333 0.907576 0 255 100
0.0564061 0.0225295 0.906607 0 255 100
0.0565324 0.0228251 0.905642 0 255 100
0.0566584 0.02312 0.904678 0 255 100
0.0567842 0.0234143 0.903716 0 255 100
0.0569097 0.023708 0.902756 0 255 100
0.057035 0.0240011 0.901798 0 255 100
0.05716 0.0242935 0.900843 0 255 100
0.0572847 0.0245854 0.899889 0 255 100
0.0523224 -0.0497068 0.948066 0 255 100
0.0525731 -0.0492713 0.946128 0 255 100
0.0528228 -0.0488376 0.944198 0 255 100
0.0530715 -0.0484057 0.942275 0 255 100
0.0533192 -0.0479755 0.940361 0 255 100
0.0535659 -0.047547 0.938454 0 255 100
0.0538116 -0.0471203 0.936555 0 255 100
0.0540563 -0.0466953 0.934663 0 255 100
0.0543 -0.0462721 0.932779 0 255 100
0.0545428 -0.0458505 0.930903 0 255 100
0.0547845 -0.0454306 0.929034 0 255 100
0.0550253 -0.0450124 0.927173 0 255 100
0.0552651 -0.0445959 0.925319 0 255 100
0.055504 -0.044181 0.923472 0 255 100
0.0557419 -0.0437678 0.921633 0 255 100
0.0518516 -0.0500654 0.951704 0 255 100
0.0548491 -0.0440953 0.92853 0 255 100
0.0550736 -0.0436859 0.926794 0 255 100
0.0552973 -0.0432779 0.925065 0 255 100
0.0555201 -0.0428715 0.923343 0 255 100
0.0555201 -0.0425457 0.923343 0 255 100
0.0576322 -0.0471174 0.936496 0 255 100
0.0576755 -0.0467747 0.936252 0 255 100
0.0577188 -0.0464322 0.936008 0 255 100
0.057762 -0.0460899 0.935764 0 255 100
0.0578052 -0.0457478 0.935521 0 255 100
0.0578484 -0.0454059 0.935277 0 255 100
0.0578916 -0.0450641 0.935034 0 255 100
0.0579348 -0.0447225 0.934791 0 255 100
0.0579779 -0.0443811 0.934548 0 255 100
0.058021 -0.0440399 0.934304 0 255 100
0.0580641 -0.0436988 0.934062 0 255 100
0.0581071 -0.0433579 0.933819 0 255 100
0.0581502 -0.0430172 0.933576 0 255 100
0.0581892 -0.0423439 0.933259 0 255 100
0.058225 -0.0419985 0.932902 0 255 100
0.0582608 -0.0416534 0.932545 0 255 100
0.0582966 -0.0413085 0.932188 0 255 100
0.0583323 -0.0409639 0.931831 0 255 100
0.0623655 -0.0227295 0.899889 0 255 100
0.0623388 -0.0224173 0.900102 0 255 100
0.0623122 -0.0221049 0.900315 0 255 100
0.0622855 -0.0217924 0.900528 0 255 100
0.0622588 -0.0214797 0.900742 0 255 100
0.0622321 -0.0211668 0.900955 0 255 100
0.0622053 -0.0208539 0.901169 0 255 100
0.0621786 -0.0205407 0.901383 0 255 100
0.0621519 -0.0202274 0.901596 0 255 100
0.0621251 -0.019914 0.90181 0 255 100
0.0620983 -0.0196004 0.902024 0 255 100
0.0590056 -0.0476545 0.937312 0 255 100
0.0605453 -0.0443741 0.927508 0 255 100
0.0607464 -0.0439694 0.925878 0 255 100
0.0609468 -0.0435661 0.924254 0 255 100
0.0611464 -0.0431642 0.922635 0 255 100
0.0613454 -0.0427638 0.921022 0 255 100
0.0615437 -0.0423647 0.919415 0 255 100
0.0617413 -0.041967 0.917813 0 255 100
0.0619383 -0.0415707 0.916217 0 255 100
0.0621345 -0.0411758 0.914626 0 255 100
0.0623301 -0.0407822 0.913041 0 255 100
0.0625249 -0.0403901 0.911462 0 255 100
0.0624008 -0.0401127 0.912468 0 255 100
0.0624215 -0.0397834 0.9123 0 255 100
0.0624422 -0.0394542 0.912132 0 255 100
0.0624629 -0.0391251 0.911964 0 255 100
0.0624836 -0.0387961 0.911797 0 255 100
0.0625043 -0.0384673 0.911629 0 255 100
0.0625249 -0.0381386 0.911462 0 255 100
0.0617055 -0.0380926 0.918103 0 255 100
0.0617326 -0.0377596 0.917884 0 255 100
0.0617596 -0.0374267 0.917665 0 255 100
0.0617867 -0.037094 0.917446 0 255 100
0.0618137 -0.0367615 0.917227 0 255 100
0.0618407 -0.0364292 0.917008 0 255 100
0.0618677 -0.0360969 0.916789 0 255 100
0.0618946 -0.0357649 0.91657 0 255 100
0.0638796 -0.0362916 0.913546 0 255 100
0.0638584 -0.0359761 0.91372 0 255 100
0.0638372 -0.0356605 0.913895 0 255 100
0.063816 -0.0353447 0.914069 0 255 100
0.0637948 -0.0350289 0.914243 0 255 100
0.0637736 -0.0347129 0.914418 0 255 100
0.0637524 -0.0343968 0.914592 0 255 100
0.0637312 -0.0340805 0.914767 0 255 100
0.06371 -0.0337642 0.914941 0 255 100
0.0636887 -0.0334477 0.915116 0 255 100
0.0636675 -0.0331311 0.915291 0 255 100
0.0636462 -0.0328144 0.915466 0 255 100
0.0636249 -0.0324975 0.915641 0 255 100
0.0644622 -0.0400735 0.911576 0 255 100
0.0644457 -0.0397615 0.911798 0 255 100
0.0644292 -0.0394493 0.91202 0 255 100
0.0644127 -0.039137 0.912242 0 255 100
0.0643962 -0.0388245 0.912464 0 255 100
0.0643796 -0.0385119 0.912686 0 255 100
0.0643631 -0.0381991 0.912908 0 255 100
0.0643465 -0.0378862 0.913131 0 255 100
0.06433 -0.0375732 0.913353 0 255 100
0.0643134 -0.0372599 0.913576 0 255 100
0.0642969 -0.0369466 0.913798 0 255 100
0.0642803 -0.036633 0.914021 0 255 100
0.0642637 -0.0363193 0.914244 0 255 100
0.0642471 -0.0360055 0.914467 0 255 100
0.0642305 -0.0356915 0.91469 0 255 100
0.0642139 -0.0353774 0.914913 0 255 100
0.0641973 -0.0350631 0.915137 0 255 100
0.0641806 -0.0347486 0.91536 0 255 100
0.064164 -0.034434 0.915584 0 255 100
0.0641474 -0.0341193 0.915807 0 255 100
0.0641307 -0.0338044 0.916031 0 255 100
0.0641141 -0.0334893 0.916255 0 255 100
0.0640974 -0.0331741 0.916479 0 255 100
0.0640807 -0.0328587 0.916703 0 255 100
0.064064 -0.0325432 0.916927 0 255 100
0.0640473 -0.0322275 0.917152 0 255 100
0.0640306 -0.0319117 0.917376 0 255 100
0.0640139 -0.0315957 0.917601 0 255 100
0.0639972 -0.0312796 0.917825 0 255 100
0.0639805 -0.0309633 0.91805 0 255 100
0.0646924 -0.037634 0.914832 0 255 100
0.0646797 -0.0373155 0.914937 0 255 100
0.0646669 -0.0369969 0.915043 0 255 100
0.0646542 -0.0366782 0.915148 0 255 100
0.0646415 -0.0363595 0.915254 0 255 100
0.0646288 -0.0360407 0.915359 0 255 100
0.064616 -0.0357218 0.915465 0 255 100
0.0646033 -0.0354028 0.915571 0 255 100
0.0645906 -0.0350838 0.915676 0 255 100
0.0645778 -0.0347647 0.915782 0 255 100
0.0645651 -0.0344455 0.915888 0 255 100
0.0645523 -0.0341262 0.915994 0 255 100
0.0645396 -0.0338069 0.916099 0 255 100
0.0645268 -0.0334875 0.916205 0 255 100
0.0645141 -0.033168 0.916311 0 255 100
0.0645013 -0.0328485 0.916417 0 255 100
0.0644886 -0.0325288 0.916523 0 255 100
0.0640841 0.00147293 0.943912 0 255 100
0.0640714 0.00180641 0.944117 0 255 100
0.0640586 0.00214003 0.944322 0 255 100
0.0640459 0.0024738 0.944527 0 255 100
0.0640331 0.00280771 0.944732 0 255 100
0.0640204 0.00314177 0.944937 0 255 100
0.0640076 0.00347597 0.945143 0 255 100
0.0639948 0.00381031 0.945348 0 255 100
0.0639821 0.00414481 0.945554 0 255 100
0.0639693 0.00447944 0.945759 0 255 100
0.0639565 0.00481423 0.945965 0 255 100
0.0639437 0.00514916 0.946171 0 255 100
0.0639309 0.00548423 0.946377 0 255 100
0.0639181 0.00581945 0.946583 0 255 100
0.0639053 0.00615482 0.946789 0 255 100
0.0638925 0.00649033 0.946995 0 255 100
0.0638796 0.00682599 0.947202 0 255 100
0.0638668 0.0071618 0.947408 0 255 100
0.063854 0.00749775 0.947615 0 255 100
0.0638411 0.00783385 0.947821 0 255 100
0.0638283 0.00817009 0.948028 0 255 100
0.0638155 0.00850649 0.948235 0 255 100
0.0638026 0.00884302 0.948442 0 255 100
0.0637897 0.00917971 0.948649 0 255 100
0.0637769 0.00951654 0.948855 0 255 100
0.063764 0.00985352 0.949063 0 255 100
0.0664176 -0.0404106 0.911925 0 255 100
0.0664018 -0.0400987 0.91215 0 255 100
0.066386 -0.0397866 0.912375 0 255 100
0.0663702 -0.0394744 0.9126 0 255 100
0.0663543 -0.039162 0.912825 0 255 100
0.0663385 -0.0388495 0.91305 0 255 100
0.0663226 -0.0385368 0.913276 0 255 100
0.0663068 -0.038224 0.913501 0 255 100
0.0662909 -0.037911 0.913727 0 255 100
0.066275 -0.0375978 0.913953 0 255 100
0.0662592 -0.0372845 0.914178 0 255 100
0.0662433 -0.0369711 0.914405 0 255 100
0.0662274 -0.0366575 0.914631 0 255 100
0.0662115 -0.0363437 0.914857 0 255 100
0.0661956 -0.0360298 0.915083 0 255 100
0.0661796 -0.0357157 0.91531 0 255 100
0.0661637 -0.0354015 0.915536 0 255 100
0.0661478 -0.0350871 0.915763 0 255 100
0.0661318 -0.0347725 0.915989 0 255 100
0.0661159 -0.0344578 0.916216 0 255 100
0.0660999 -0.034143 0.916443 0 255 100
0.066084 -0.033828 0.91667 0 255 100
0.066068 -0.0335128 0.916898 0 255 100
0.066052 -0.0331975 0.917125 0 255 100
0.066036 -0.032882 0.917352 0 255 100
0.06602 -0.0325664 0.91758 0 255 100
0.066004 -0.0322506 0.917808 0 255 100
0.065988 -0.0319346 0.918035 0 255 100
0.065972 -0.0316185 0.918263 0 255 100
0.0659559 -0.0313023 0.918491 0 255 100
0.0659399 -0.0309858 0.918719 0 255 100
0.0659239 -0.0306693 0.918948 0 255 100
0.0659078 -0.0303525 0.919176 0 255 100
0.0658917 -0.0300356 0.919405 0 255 100
0.0658757 -0.0297186 0.919633 0 255 100
0.0658596 -0.0294014 0.919862 0 255 100
0.0658435 -0.029084 0.92009 0 255 100
0.0658274 -0.0287665 0.920319 0 255 100
0.0658113 -0.0284488 0.920548 0 255 100
0.0657952 -0.028131 0.920778 0 255 100
0.0657791 -0.027813 0.921007 0 255 100
0.0673006 -0.0306908 0.919593 0 255 100
0.0672949 -0.0303719 0.919761 0 255 100
0.0672892 -0.0300528 0.91993 0 255 100
0.0672834 -0.0297336 0.920098 0 255 100
0.0672777 -0.0294143 0.920266 0 255 100
0.067272 -0.0290949 0.920435 0 255 100
0.0672662 -0.0287753 0.920603 0 255 100
0.0672605 -0.0284557 0.920771 0 255 100
0.0672548 -0.0281359 0.92094 0 255 100
0.067249 -0.027816 0.921109 0 255 100
0.0672433 -0.027496 0.921277 0 255 100
0.0672375 -0.0271759 0.921446 0 255 100
0.0672318 -0.0268557 0.921615 0 255 100
0.067226 -0.0265353 0.921784 0 255 100
0.0672203 -0.0262149 0.921953 0 255 100
0.0672145 -0.0258943 0.922122 0 255 100
0.0672088 -0.0255736 0.922291 0 255 100
0.067203 -0.0252527 0.92246 0 255 100
0.0671972 -0.0249318 0.922629 0 255 100
0.0681656 -0.0375911 0.913788 0 255 100
0.0681547 -0.0372778 0.914013 0 255 100
0.0681438 -0.0369643 0.914237 0 255 100
0.0681329 -0.0366507 0.914462 0 255 100
0.068122 -0.036337 0.914687 0 255 100
0.0681111 -0.036023 0.914912 0 255 100
0.0681002 -0.035709 0.915137 0 255 100
0.0680892 -0.0353948 0.915362 0 255 100
0.0680783 -0.0350804 0.915588 0 255 100
0.0680674 -0.0347658 0.915813 0 255 100
0.0680564 -0.0344512 0.916039 0 255 100
0.0680455 -0.0341363 0.916265 0 255 100
0.0680345 -0.0338213 0.91649 0 255 100
0.0680236 -0.0335062 0.916716 0 255 100
0.0681118 -0.0404612 0.913067 0 255 100
0.0681018 -0.0401485 0.913283 0 255 100
0.0680918 -0.0398357 0.9135 0 255 100
0.0680818 -0.0395227 0.913716 0 255 100
0.0680718 -0.0392096 0.913933 0 255 100
0.0680618 -0.0388963 0.91415 0 255 100
0.0680518 -0.0385829 0.914367 0 255 100
0.0680418 -0.0382693 0.914584 0 255 100
0.0680318 -0.0379555 0.914801 0 255 100
0.0687966 -0.022097 0.92663 0 255 100
0.0687881 -0.0217747 0.92683 0 255 100
0.0687795 -0.0214523 0.92703 0 255 100
0.068771 -0.0211297 0.92723 0 255 100
0.0687625 -0.020807 0.92743 0 255 100
0.0687539 -0.0204842 0.92763 0 255 100
0.0687454 -0.0201612 0.927831 0 255 100
0.0687368 -0.0198381 0.928031 0 255 100
0.0687283 -0.0195148 0.928231 0 255 100
0.0687197 -0.0191914 0.928432 0 255 100
0.0687112 -0.0188679 0.928633 0 255 100
0.0687026 -0.0185442 0.928833 0 255 100
0.0686941 -0.0182203 0.929034 0 255 100
0.0686855 -0.0178964 0.929235 0 255 100
0.0686769 -0.0175723 0.929436 0 255 100
0.0686684 -0.017248 0.929637 0 255 100
0.0686598 -0.0169236 0.929838 0 255 100
0.0686512 -0.0165991 0.930039 0 255 100
0.0686426 -0.0162744 0.930241 0 255 100
0.068634 -0.0159496 0.930442 0 255 100
0.0686254 -0.0156247 0.930644 0 255 100
0.0686168 -0.0152996 0.930845 0 255 100
0.0686082 -0.0149744 0.931047 0 255 100
0.0685996 -0.014649 0.931249 0 255 100
0.068591 -0.0143235 0.931451 0 255 100
0.0685824 -0.0139978 0.931652 0 255 100
0.0695562 -0.0268995 0.923119 0 255 100
0.0695434 -0.0265801 0.923339 0 255 100
0.0695306 -0.0262605 0.923558 0 255 100
0.0695178 -0.0259408 0.923778 0 255 100
0.069505 -0.0256209 0.923998 0 255 100
0.0694922 -0.0253009 0.924218 0 255 100
0.0694794 -0.0249807 0.924438 0 255 100
0.0694666 -0.0246603 0.924659 0 255 100
0.0694538 -0.0243398 0.924879 0 255 100
0.0694409 -0.0240192 0.925099 0 255 100
0.0694281 -0.0236984 0.92532 0 255 100
0.0694153 -0.0233775 0.92554 0 255 100
0.0694024 -0.0230563 0.925761 0 255 100
0.0693896 -0.0227351 0.925982 0 255 100
0.0693767 -0.0224137 0.926203 0 255 100
0.0693638 -0.0220921 0.926424 0 255 100
0.069351 -0.0217704 0.926645 0 255 100
0.0693381 -0.0214485 0.926866 0 255 100
0.0693252 -0.0211265 0.927088 0 255 100
0.0693123 -0.0208043 0.927309 0 255 100
0.0692994 -0.020482 0.927531 0 255 100
0.0692865 -0.0201595 0.927752 0 255 100
0.0692736 -0.0198369 0.927974 0 255 100
0.0692607 -0.0195141 0.928196 0 255 100
0.0692478 -0.0191911 0.928418 0 255 100
0.0692349 -0.018868 0.92864 0 255 100
0.0692219 -0.0185448 0.928862 0 255 100
0.069209 -0.0182213 0.929085 0 255 100
0.069196 -0.0178978 0.929307 0 255 100
0.0691831 -0.017574 0.92953 0 255 100
0.0691701 -0.0172502 0.929752 0 255 100
0.0691572 -0.0169261 0.929975 0 255 100
0.0691442 -0.0166019 0.930198 0 255 100
0.0691312 -0.0162776 0.930421 0 255 100
0.0691182 -0.0159531 0.930644 0 255 100
0.0691052 -0.0156284 0.930867 0 255 100
0.0690923 -0.0153036 0.93109 0 255 100
0.0690793 -0.0149787 0.931314 0 255 100
0.0690663 -0.0146535 0.931537 0 255 100
0.0690532 -0.0143283 0.931761 0 255 100
0.0690402 -0.0140028 0.931985 0 255 100
0.0690272 -0.0136772 0.932208 0 255 100
0.0690142 -0.0133515 0.932432 0 255 100
0.0690011 -0.0130256 0.932656 0 255 100
0.0689881 -0.0126995 0.932881 0 255 100
0.068975 -0.0123733 0.933105 0 255 100
0.068962 -0.0120469 0.933329 0 255 100
0.0689489 -0.0117204 0.933554 0 255 100
0.0689358 -0.0113937 0.933778 0 255 100
0.0689228 -0.0110669 0.934003 0 255 100
0.0689097 -0.0107399 0.934228 0 255 100
0.0688966 -0.0104127 0.934453 0 255 100
0.0688835 -0.0100854 0.934677 0 255 100
0.0688704 -0.0097579 0.934903 0 255 100
0.071303 -0.0388334 0.912673 0 255 100
0.0712907 -0.0385221 0.912927 0 255 100
0.0712783 -0.0382106 0.913181 0 255 100
0.0712659 -0.0378989 0.913436 0 255 100
0.0712535 -0.037587 0.913691 0 255 100
0.0712412 -0.037275 0.913945 0 255 100
0.0712288 -0.0369628 0.9142 0 255 100
0.0712164 -0.0366504 0.914455 0 255 100
0.071204 -0.0363379 0.91471 0 255 100
0.0711916 -0.0360252 0.914966 0 255 100
0.0711792 -0.0357123 0.915221 0 255 100
0.0711667 -0.0353992 0.915477 0 255 100
0.0711543 -0.0350859 0.915733 0 255 100
0.0711419 -0.0347725 0.915989 0 255 100
0.0711294 -0.0344589 0.916245 0 255 100
0.071117 -0.0341451 0.916501 0 255 100
0.0711045 -0.0338312 0.916757 0 255 100
0.071092 -0.0335171 0.917014 0 255 100
0.0710796 -0.0332027 0.91727 0 255 100
0.0710671 -0.0328883 0.917527 0 255 100
0.0710546 -0.0325736 0.917784 0 255 100
0.0710421 -0.0322588 0.918041 0 255 100
0.0710296 -0.0319438 0.918298 0 255 100
0.0710171 -0.0316286 0.918556 0 255 100
0.0710046 -0.0313132 0.918813 0 255 100
0.0709921 -0.0309977 0.919071 0 255 100
0.0709795 -0.030682 0.919329 0 255 100
