ply
format ascii 1.0
element vertex 1204
property float x
property float y
property float z
property uchar red
property uchar green
property uchar blue
end_header
0.0168721 -0.0131565 0.930277 0 255 100
0.0195699 -0.0267566 0.918213 0 255 100
0.0184447 -0.0181764 0.926794 0 255 100
0.0196057 -0.0277803 0.919923 0 255 100
0.0196062 -0.0268062 0.919917 0 255 100
0.0187367 -0.0197747 0.925065 0 255 100
0.0187717 -0.0188305 0.926794 0 255 100
0.0187712 -0.0165413 0.926801 0 255 100
0.0181851 -0.0129924 0.930279 0 255 100
0.0179246 -0.00941664 0.933776 0 255 100
0.0176283 -0.00646324 0.935538 0 255 100
0.0173303 -0.00482173 0.937313 0 255 100
0.0173303 -0.00416021 0.937313 0 255 100
0.0245384 -0.0408716 0.88701 0 255 100
0.0199309 -0.0264816 0.919917 0 255 100
0.0196423 -0.0234413 0.921632 0 255 100
0.0193534 -0.0223445 0.923343 0 255 100
0.0190982 -0.0194847 0.926802 0 255 100
0.0185487 -0.0126878 0.932021 0 255 100
0.0182537 -0.0079339 0.933781 0 255 100
0.0257905 -0.038837 0.887009 0 255 100
0.0212683 -0.0278319 0.921633 0 255 100
0.0215137 -0.0272427 0.918218 0 255 100
0.0212288 -0.0268064 0.919923 0 255 100
0.0209432 -0.0257179 0.921632 0 255 100
0.0209432 -0.024417 0.921632 0 255 100
0.0206562 -0.0229963 0.92335 0 255 100
0.0206562 -0.0220188 0.92335 0 255 100
0.0206948 -0.0210806 0.925072 0 255 100
0.0204064 -0.0191577 0.926801 0 255 100
0.0204065 -0.01834 0.9268 0 255 100
0.0201171 -0.0154255 0.928535 0 255 100
0.0198638 -0.013839 0.932026 0 255 100
0.0195717 -0.01057 0.933781 0 255 100
0.0195717 -0.00859291 0.933781 0 255 100
0.0192789 -0.00547285 0.935538 0 255 100
0.0186888 -0.00300825 0.939087 0 255 100
0.0212688 -0.0265308 0.921626 0 255 100
0.0212684 -0.0257179 0.921632 0 255 100
0.0212684 -0.0247422 0.921632 0 255 100
0.0213477 -0.0236921 0.925072 0 255 100
0.0210213 -0.0218966 0.925071 0 255 100
0.0207335 -0.0171954 0.926801 0 255 100
0.0204835 -0.0149619 0.930272 0 255 100
0.0201931 -0.0113723 0.932021 0 255 100
0.0193514 -0.00317395 0.939089 0 255 100
0.0270425 -0.041028 0.887009 0 255 100
0.0228101 -0.0287006 0.918213 0 255 100
0.0220005 -0.0220599 0.925072 0 255 100
0.0220416 -0.0191577 0.926801 0 255 100
0.0217151 -0.0185035 0.926794 0 255 100
0.0214276 -0.0172276 0.928537 0 255 100
0.0275698 -0.0429091 0.883848 0 255 100
0.027307 -0.0417356 0.88542 0 255 100
0.0273554 -0.0405586 0.88701 0 255 100
0.0228524 -0.0284293 0.919917 0 255 100
0.0228949 -0.0271812 0.921626 0 255 100
0.0225693 -0.0247422 0.921632 0 255 100
0.0225693 -0.0240918 0.921632 0 255 100
0.0226112 -0.0236479 0.92335 0 255 100
0.0220421 -0.0178494 0.926794 0 255 100
0.0217554 -0.0157531 0.928535 0 255 100
0.0212197 -0.0104052 0.933776 0 255 100
0.0212192 -0.00941671 0.933783 0 255 100
0.0212592 -0.00877421 0.935545 0 255 100
0.0209691 -0.00515244 0.937306 0 255 100
0.0207163 -0.00201793 0.940869 0 255 100
0.023177 -0.0284293 0.919917 0 255 100
0.0231767 -0.026644 0.919922 0 255 100
0.0229372 -0.023485 0.923348 0 255 100
0.022937 -0.0226705 0.92335 0 255 100
0.0226539 -0.0204275 0.925065 0 255 100
0.0224111 -0.0188658 0.92853 0 255 100
0.0224111 -0.0168998 0.92853 0 255 100
0.0218376 -0.0113723 0.932021 0 255 100
0.0244302 -0.0267566 0.918213 0 255 100
0.0238702 -0.024417 0.921632 0 255 100
0.0236774 -0.0168682 0.926794 0 255 100
0.0286591 -0.0400038 0.888594 0 255 100
0.0244751 -0.0282671 0.919922 0 255 100
0.0245205 -0.0262058 0.921633 0 255 100
0.0241954 -0.0253927 0.921632 0 255 100
0.0239593 -0.0235288 0.925071 0 255 100
0.024521 -0.0229534 0.921627 0 255 100
0.0242408 -0.0223445 0.923343 0 255 100
0.0239596 -0.0210804 0.925065 0 255 100
0.0239596 -0.0201011 0.925065 0 255 100
0.0236774 -0.0165412 0.926794 0 255 100
0.0237213 -0.0150978 0.928535 0 255 100
0.0233937 -0.0137872 0.928535 0 255 100
0.022334 -0.00267687 0.939087 0 255 100
0.0291817 -0.0417356 0.88542 0 255 100
0.0247998 -0.0289164 0.919922 0 255 100
0.0248001 -0.0268062 0.919917 0 255 100
0.0242861 -0.0204275 0.925065 0 255 100
0.0237658 -0.0131565 0.930277 0 255 100
0.0234816 -0.0112079 0.932026 0 255 100
0.023482 -0.0107145 0.932021 0 255 100
0.0258219 -0.0249047 0.921627 0 255 100
0.0255914 -0.0205909 0.925071 0 255 100
0.0249855 -0.0178494 0.926794 0 255 100
0.0260499 -0.0288628 0.918218 0 255 100
0.0260498 -0.0280528 0.91822 0 255 100
0.0255441 -0.0242994 0.923343 0 255 100
0.0255914 -0.0215702 0.925071 0 255 100
0.0253122 -0.0199753 0.9268 0 255 100
0.0250789 -0.0147979 0.930277 0 255 100
0.025032 -0.0137872 0.928535 0 255 100
0.0247975 -0.0107145 0.932021 0 255 100
0.0256393 -0.018013 0.9268 0 255 100
0.0248442 -0.00974614 0.933776 0 255 100
0.0243684 -0.00268195 0.940869 0 255 100
0.0270223 -0.0290247 0.918213 0 255 100
0.0266208 -0.022755 0.926794 0 255 100
0.0266706 -0.0159169 0.92853 0 255 100
0.0271223 -0.0268562 0.921633 0 255 100
0.0268975 -0.0240183 0.925065 0 255 100
0.0268972 -0.0218966 0.925071 0 255 100
0.0266208 -0.0188305 0.926794 0 255 100
0.0261127 -0.0128523 0.932026 0 255 100
0.0261619 -0.0079339 0.933781 0 255 100
0.0269473 -0.0181766 0.926801 0 255 100
0.0326182 -0.0404861 0.885426 0 255 100
0.0283706 -0.0272933 0.919922 0 255 100
0.0282033 -0.0214068 0.925065 0 255 100
0.0276532 -0.0154255 0.928535 0 255 100
0.0303186 -0.0287539 0.919917 0 255 100
0.0312342 -0.0265947 0.918218 0 255 100
0.0331783 -0.0278908 0.918218 0 255 100
0.0327123 -0.0200637 0.923343 0 255 100
0.031341 -0.00218392 0.940863 0 255 100
0.0341503 -0.0287009 0.91822 0 255 100
0.0338891 -0.0269687 0.919922 0 255 100
0.0332861 -0.0152902 0.930272 0 255 100
0.0332858 -0.0144696 0.930277 0 255 100
0.0334111 -0.00925193 0.933781 0 255 100
0.0340152 -0.0233221 0.92335 0 255 100
0.0351227 -0.0296727 0.918213 0 255 100
0.0345344 -0.0159169 0.92853 0 255 100
0.0339966 -0.0011879 0.94087 0 255 100
0.0365542 -0.0271812 0.921627 0 255 100
0.0366218 -0.0249513 0.92335 0 255 100
0.036296 -0.0229963 0.92335 0 255 100
0.0362961 -0.0218558 0.923348 0 255 100
0.0358446 -0.0162446 0.928537 0 255 100
0.035718 -0.0104052 0.933776 0 255 100
0.0355223 -0.00647546 0.937306 0 255 100
0.0355219 -0.00118341 0.937313 0 255 100
0.0366222 -0.0249511 0.923343 0 255 100
0.0366219 -0.02153 0.923348 0 255 100
0.0378547 -0.0239292 0.921633 0 255 100
0.0416051 -0.042285 0.883842 0 255 100
0.0380386 -0.0282148 0.918218 0 255 100
0.0381094 -0.026157 0.919917 0 255 100
0.0378547 -0.0240918 0.921632 0 255 100
0.0376698 -0.0214068 0.925065 0 255 100
0.0374132 -0.0168682 0.926794 0 255 100
0.0370356 -0.00974622 0.933783 0 255 100
0.0379252 -0.0225075 0.923348 0 255 100
0.0369848 -0.00234994 0.940869 0 255 100
0.039083 -0.0237225 0.919922 0 255 100
0.0388307 -0.0252299 0.921626 0 255 100
0.0389753 -0.0245081 0.925071 0 255 100
0.038903 -0.0220186 0.923343 0 255 100
0.0387939 -0.0198487 0.92853 0 255 100
0.0387936 -0.0190297 0.928535 0 255 100
0.038721 -0.0181766 0.926801 0 255 100
0.0389752 -0.0171633 0.925072 0 255 100
0.0387214 -0.0165412 0.926795 0 255 100
0.0383538 -0.01057 0.933781 0 255 100
0.0392286 -0.0241366 0.923348 0 255 100
0.0434745 -0.0388191 0.890189 0 255 100
0.0404568 -0.023929 0.921626 0 255 100
0.0390513 -0.00119015 0.942652 0 255 100
0.0400293 -0.0225916 0.9268 0 255 100
0.0395972 -0.0125234 0.932026 0 255 100
0.0404565 -0.0263683 0.921632 0 255 100
0.0412604 -0.0215702 0.925071 0 255 100
0.041603 -0.0261085 0.918213 0 255 100
0.0414322 -0.0231161 0.921632 0 255 100
0.0412606 -0.0217333 0.925065 0 255 100
0.0412603 -0.0207541 0.925072 0 255 100
0.0410675 -0.011085 0.935538 0 255 100
0.0449442 -0.0107347 0.933776 0 255 100
0.046175 -0.0141679 0.932026 0 255 100
0.0467226 -0.02153 0.923348 0 255 100
0.0458464 -0.0133456 0.932021 0 255 100
0.0458464 -0.01203 0.932021 0 255 100
0.0495788 -0.0386805 0.88701 0 255 100
0.0448597 -0.0107145 0.932021 0 255 100
0.0441162 -0.0226703 0.923343 0 255 100
0.0439538 -0.0189941 0.9268 0 255 100
0.0437905 -0.0157827 0.930277 0 255 100
0.0433811 -0.0191934 0.92853 0 255 100
0.0432153 -0.0123589 0.932021 0 255 100
0.0428796 -0.00251118 0.939089 0 255 100
0.042961 -0.00168592 0.940869 0 255 100
0.0469296 -0.0375629 0.890195 0 255 100
0.042973 -0.0181764 0.926794 0 255 100
0.042566 -0.0220599 0.925072 0 255 100
0.0423189 -0.0201387 0.926794 0 255 100
0.0424867 -0.0223446 0.92335 0 255 100
0.0417425 -0.020668 0.928535 0 255 100
0.0417425 -0.015917 0.928537 0 255 100
0.0419784 -0.00595684 0.933781 0 255 100
0.0459051 -0.0390631 0.888594 0 255 100
0.0414325 -0.0255551 0.921627 0 255 100
0.0415867 -0.0204277 0.925072 0 255 100
0.0411646 -0.012664 0.930272 0 255 100
0.0413196 -0.00480353 0.933776 0 255 100
0.0408141 -0.00366407 0.937312 0 255 100
0.040858 -0.0226703 0.923343 0 255 100
0.0400768 -0.008279 0.935543 0 255 100
0.0397919 -0.00102579 0.944453 0 255 100
0.041107 -0.0257179 0.921632 0 255 100
0.0409338 -0.0197748 0.925072 0 255 100
0.040255 -0.0128523 0.932026 0 255 100
0.0404564 -0.0242544 0.921633 0 255 100
0.0444912 -0.0415796 0.885425 0 255 100
0.0443373 -0.0409445 0.888593 0 255 100
0.044337 -0.037182 0.8886 0 255 100
0.0404568 -0.0245795 0.921627 0 255 100
0.040955 -0.0241644 0.918213 0 255 100
0.0402063 -0.0226703 0.923343 0 255 100
0.0400296 -0.0211198 0.926794 0 255 100
0.0400293 -0.0170319 0.9268 0 255 100
0.0402063 -0.0256027 0.923343 0 255 100
0.040281 -0.019938 0.925071 0 255 100
0.0398511 -0.018573 0.930279 0 255 100
0.0396718 -0.00958144 0.933781 0 255 100
0.0398064 -0.0255551 0.921627 0 255 100
0.0394489 -0.0141148 0.928535 0 255 100
0.0391946 -0.0133207 0.930279 0 255 100
0.04371 -0.0382794 0.888598 0 255 100
0.0437887 -0.0375626 0.890189 0 255 100
0.0395547 -0.0239736 0.923343 0 255 100
0.0396282 -0.0232024 0.925071 0 255 100
0.0393016 -0.0204277 0.925072 0 255 100
0.0391212 -0.0172276 0.928537 0 255 100
0.039195 -0.0139771 0.930272 0 255 100
0.0433188 -0.04228 0.887009 0 255 100
0.0430827 -0.0387498 0.8886 0 255 100
0.0391556 -0.0263683 0.921632 0 255 100
0.038903 -0.0236478 0.923343 0 255 100
0.0389756 -0.0220597 0.925065 0 255 100
0.0389752 -0.0207541 0.925072 0 255 100
0.0387214 -0.0198116 0.926794 0 255 100
0.0390482 -0.018013 0.9268 0 255 100
0.0387935 -0.0172276 0.928537 0 255 100
0.0385384 -0.0139771 0.930272 0 255 100
0.0383132 -0.000523875 0.940863 0 255 100
0.0391559 -0.0242543 0.921626 0 255 100
0.0389027 -0.0231592 0.923348 0 255 100
0.0387214 -0.0165412 0.926795 0 255 100
0.0385384 -0.0120075 0.930272 0 255 100
0.0379089 -0.00101996 0.939087 0 255 100
0.0426927 -0.0396195 0.88701 0 255 100
0.0426168 -0.0417356 0.88542 0 255 100
0.042693 -0.0380542 0.887004 0 255 100
0.0382511 -0.0257658 0.923348 0 255 100
0.0382511 -0.023485 0.923348 0 255 100
0.0385768 -0.021693 0.92335 0 255 100
0.0381382 -0.0152617 0.928537 0 255 100
0.0376239 -0.0135101 0.932026 0 255 100
0.0376239 -0.0115368 0.932026 0 255 100
0.0374357 -0.00926939 0.935543 0 255 100
0.0426168 -0.0426729 0.88542 0 255 100
0.0423797 -0.041028 0.887009 0 255 100
0.0423797 -0.040089 0.887009 0 255 100
0.0422936 -0.0373158 0.891796 0 255 100
0.0384338 -0.0269687 0.919922 0 255 100
0.0381803 -0.0236038 0.921626 0 255 100
0.0379252 -0.0229963 0.92335 0 255 100
0.0379959 -0.0207541 0.925072 0 255 100
0.0379959 -0.0197748 0.925072 0 255 100
0.03774 -0.0189941 0.9268 0 255 100
0.0378106 -0.0162446 0.928537 0 255 100
0.0378109 -0.0149339 0.92853 0 255 100
0.0372465 -0.00648772 0.939081 0 255 100
0.038109 -0.0264818 0.919923 0 255 100
0.0419919 -0.0389236 0.88542 0 255 100
0.0375295 -0.0257179 0.921632 0 255 100
0.0375997 -0.0216928 0.923343 0 255 100
0.0377145 -0.0272427 0.918218 0 255 100
0.0375295 -0.0266936 0.921632 0 255 100
0.0377845 -0.0256702 0.919922 0 255 100
0.0375294 -0.0252301 0.921633 0 255 100
0.0375994 -0.0238108 0.923348 0 255 100
0.0374129 -0.0232457 0.9268 0 255 100
0.0370859 -0.0212835 0.9268 0 255 100
0.0370166 -0.0207541 0.925072 0 255 100
0.0373431 -0.019938 0.925071 0 255 100
0.0379252 -0.0192492 0.923348 0 255 100
0.0374129 -0.01834 0.9268 0 255 100
0.0368968 -0.0170958 0.930277 0 255 100
0.0371556 -0.0146062 0.92853 0 255 100
0.0367065 -0.0110642 0.933776 0 255 100
0.0367065 -0.0104052 0.933776 0 255 100
0.0370356 -0.0090872 0.933783 0 255 100
0.0365142 -0.00730238 0.937312 0 255 100
0.0367758 -0.00580298 0.935538 0 255 100
0.0367755 -0.00398729 0.935543 0 255 100
0.0415152 -0.0403174 0.888594 0 255 100
0.0415152 -0.0381224 0.888594 0 255 100
0.0372736 -0.0247883 0.923348 0 255 100
0.0370859 -0.0216105 0.9268 0 255 100
0.0370167 -0.0189587 0.925071 0 255 100
0.0368971 -0.0175881 0.930272 0 255 100
0.036828 -0.0155892 0.92853 0 255 100
0.0367587 -0.0198118 0.926801 0 255 100
0.036828 -0.0165722 0.92853 0 255 100
0.0412017 -0.0393767 0.888594 0 255 100
0.0369478 -0.023485 0.923348 0 255 100
0.041128 -0.0408713 0.887004 0 255 100
0.0368106 -0.0274556 0.919923 0 255 100
0.0368107 -0.026644 0.919922 0 255 100
0.0364321 -0.0191576 0.926794 0 255 100
0.0410542 -0.0429857 0.885426 0 255 100
0.0410545 -0.0423605 0.88542 0 255 100
0.040815 -0.0414973 0.887004 0 255 100
0.040815 -0.0402453 0.887004 0 255 100
0.0371353 -0.0276179 0.919922 0 255 100
0.0368107 -0.026644 0.919922 0 255 100
0.0365539 -0.0257179 0.921632 0 255 100
0.0365539 -0.0250674 0.921632 0 255 100
0.0365539 -0.024417 0.921632 0 255 100
0.0363638 -0.0238552 0.925071 0 255 100
0.0363638 -0.0235288 0.925071 0 255 100
0.0363641 -0.0227126 0.925065 0 255 100
0.0363638 -0.0218966 0.925071 0 255 100
0.0361046 -0.0194847 0.926801 0 255 100
0.0364318 -0.018013 0.9268 0 255 100
0.0361723 -0.0155893 0.928537 0 255 100
0.0362405 -0.0103661 0.930272 0 255 100
0.0357854 -0.00877414 0.935538 0 255 100
0.0359205 -0.00715053 0.939089 0 255 100
0.0358527 -0.00300256 0.937312 0 255 100
0.035126 0.000807229 0.944455 0 255 100
0.0407418 -0.0412672 0.885425 0 255 100
0.041128 -0.0405583 0.887004 0 255 100
0.0405742 -0.039377 0.8886 0 255 100
0.0365542 -0.0275065 0.921627 0 255 100
0.0364863 -0.0271308 0.919917 0 255 100
0.0365539 -0.0257179 0.921632 0 255 100
0.0365541 -0.0226282 0.921627 0 255 100
0.0360373 -0.0204277 0.925072 0 255 100
0.0361047 -0.01834 0.9268 0 255 100
0.0357777 -0.018013 0.9268 0 255 100
0.0358447 -0.0164084 0.928535 0 255 100
0.035912 -0.0131565 0.930277 0 255 100
0.0357176 -0.0107347 0.933783 0 255 100
0.0407418 -0.0426732 0.885426 0 255 100
0.0362289 -0.0271812 0.921627 0 255 100
0.0362286 -0.0237666 0.921632 0 255 100
0.0362285 -0.0216527 0.921633 0 255 100
0.0357777 -0.018013 0.9268 0 255 100
0.0401887 -0.039463 0.887009 0 255 100
0.0361614 -0.0276179 0.919922 0 255 100
0.0359706 -0.0262544 0.923343 0 255 100
0.0359037 -0.0252299 0.921627 0 255 100
0.0357108 -0.021407 0.925072 0 255 100
0.0404294 -0.0418921 0.885425 0 255 100
0.0404293 -0.041111 0.885426 0 255 100
0.0401886 -0.0402455 0.88701 0 255 100
0.040189 -0.0393062 0.887004 0 255 100
0.0355781 -0.0278319 0.921633 0 255 100
0.0355121 -0.0274556 0.919923 0 255 100
0.0355782 -0.0266936 0.921632 0 255 100
0.0356447 -0.0256027 0.923343 0 255 100
0.0359037 -0.0242543 0.921626 0 255 100
0.0353848 -0.0236919 0.925065 0 255 100
0.0353845 -0.0202644 0.925071 0 255 100
0.0351894 -0.0200127 0.928535 0 255 100
0.0351897 -0.0182105 0.92853 0 255 100
0.0351897 -0.0172275 0.92853 0 255 100
0.0349931 -0.0156478 0.932021 0 255 100
0.0351247 -0.0147166 0.935545 0 255 100
0.0349271 -0.0131565 0.930277 0 255 100
0.0347291 -0.0100757 0.933783 0 255 100
0.0347946 -0.00976461 0.935545 0 255 100
0.034595 -0.00748192 0.939089 0 255 100
0.0345954 -0.0035053 0.939081 0 255 100
0.0346607 -0.00251595 0.940871 0 255 100
0.0348608 -0.0011834 0.937306 0 255 100
0.0340617 0.000473048 0.942652 0 255 100
0.0400454 -0.042753 0.883847 0 255 100
0.0400454 -0.0419734 0.883848 0 255 100
0.0399471 -0.0406312 0.8886 0 255 100
0.0355121 -0.0277802 0.919924 0 255 100
0.0352533 -0.0262056 0.921627 0 255 100
0.0353189 -0.0256027 0.923343 0 255 100
0.035253 -0.0227909 0.921632 0 255 100
0.0353189 -0.0220186 0.923343 0 255 100
0.0351239 -0.0201387 0.926794 0 255 100
0.0351236 -0.0193212 0.9268 0 255 100
0.0351236 -0.01834 0.9268 0 255 100
0.0348617 -0.0170638 0.928535 0 255 100
0.03453 -0.0104445 0.937306 0 255 100
0.0398044 -0.0426732 0.885426 0 255 100
0.0354467 -0.0261085 0.918213 0 255 100
0.0351236 -0.0212835 0.9268 0 255 100
0.0347315 -0.021407 0.925072 0 255 100
0.0351224 -0.0275667 0.918218 0 255 100
0.0347316 -0.0209173 0.925071 0 255 100
0.0344694 -0.0191577 0.926801 0 255 100
0.034534 -0.0178829 0.928537 0 255 100
0.039492 -0.0436106 0.885426 0 255 100
0.0394921 -0.0428294 0.885425 0 255 100
0.0394923 -0.0417356 0.88542 0 255 100
0.0391799 -0.0407983 0.88542 0 255 100
0.0392497 -0.03915 0.887009 0 255 100
0.0346024 -0.0278319 0.921633 0 255 100
0.0347969 -0.0266796 0.926794 0 255 100
0.0346028 -0.0255551 0.921627 0 255 100
0.0346673 -0.0236478 0.923343 0 255 100
0.0344055 -0.023039 0.925065 0 255 100
0.0344055 -0.0220597 0.925065 0 255 100
0.0346669 -0.0210413 0.92335 0 255 100
0.0342067 -0.0175551 0.92853 0 255 100
0.0342067 -0.0165722 0.92853 0 255 100
0.0341347 -0.0157069 0.935538 0 255 100
0.0339423 -0.013813 0.930277 0 255 100
0.0340061 -0.0135101 0.932026 0 255 100
0.0339423 -0.0128282 0.930277 0 255 100
0.0340064 -0.0123589 0.932021 0 255 100
0.0337406 -0.011888 0.933781 0 255 100
0.034006 -0.0110435 0.932028 0 255 100
0.0337405 -0.0100757 0.933783 0 255 100
0.0338046 -0.00877414 0.935538 0 255 100
0.0338046 -0.00778376 0.935538 0 255 100
0.033601 -0.00367101 0.939087 0 255 100
0.033601 -0.0020141 0.939087 0 255 100
0.0388671 -0.0429857 0.885426 0 255 100
0.0390065 -0.0423558 0.888598 0 255 100
0.0389367 -0.040402 0.887009 0 255 100
0.0391796 -0.0393925 0.885425 0 255 100
0.0345382 -0.0274556 0.919923 0 255 100
0.0346024 -0.0268562 0.921633 0 255 100
0.0345382 -0.0261572 0.919923 0 255 100
0.0345382 -0.0258325 0.919923 0 255 100
0.0343411 -0.0241366 0.923348 0 255 100
0.034341 -0.0226705 0.92335 0 255 100
0.0344055 -0.0227126 0.925065 0 255 100
0.0340787 -0.019122 0.925072 0 255 100
0.0341424 -0.0188306 0.926801 0 255 100
0.0332067 -0.00267181 0.937312 0 255 100
0.0330007 -0.0013539 0.940869 0 255 100
0.0330007 -0.000357873 0.940869 0 255 100
0.0387979 -0.0433768 0.883846 0 255 100
0.0344744 -0.0275667 0.918218 0 255 100
0.0342773 -0.0257179 0.921632 0 255 100
0.0342776 -0.0242543 0.921627 0 255 100
0.0342772 -0.0232788 0.921633 0 255 100
0.0340791 -0.0227126 0.925065 0 255 100
0.0340791 -0.0217333 0.925065 0 255 100
0.0340153 -0.0205525 0.923348 0 255 100
0.0336139 -0.0179165 0.930279 0 255 100
0.0338791 -0.0172275 0.92853 0 255 100
0.0338787 -0.0160808 0.928535 0 255 100
0.0336139 -0.0146338 0.930279 0 255 100
0.0326686 -0.00185192 0.940871 0 255 100
0.038311 -0.0399323 0.887004 0 255 100
0.0339521 -0.0250674 0.921632 0 255 100
0.0338891 -0.0263194 0.919922 0 255 100
0.0337523 -0.0205909 0.925071 0 255 100
0.0337523 -0.0202644 0.925071 0 255 100
0.038486 -0.0433768 0.883846 0 255 100
0.0384174 -0.041276 0.882275 0 255 100
0.038555 -0.0407983 0.88542 0 255 100
0.0338263 -0.0282148 0.918218 0 255 100
0.0335644 -0.0277802 0.919923 0 255 100
0.0340152 -0.0269062 0.92335 0 255 100
0.0338262 -0.0257847 0.91822 0 255 100
0.0336268 -0.0252301 0.921633 0 255 100
0.0336269 -0.0240918 0.921632 0 255 100
0.0333636 -0.0233221 0.92335 0 255 100
0.0334258 -0.0227128 0.925072 0 255 100
0.0334258 -0.0223863 0.925072 0 255 100
0.0334258 -0.0217334 0.925072 0 255 100
0.0334258 -0.021407 0.925072 0 255 100
0.0332858 -0.0187371 0.930277 0 255 100
0.0332861 -0.0166033 0.930272 0 255 100
0.0328958 -0.0154255 0.928535 0 255 100
0.0334884 -0.0147425 0.9268 0 255 100
0.0332234 -0.0144425 0.928535 0 255 100
0.0330816 -0.013206 0.933781 0 255 100
0.0326909 -0.01203 0.932021 0 255 100
0.0327521 -0.00925193 0.933781 0 255 100
0.0324841 -0.00877414 0.935538 0 255 100
0.0324837 -0.00811395 0.935545 0 255 100
0.0322754 -0.00466516 0.939087 0 255 100
0.0322753 -0.00251118 0.939089 0 255 100
0.0382425 -0.0436103 0.88542 0 255 100
0.0379977 -0.04228 0.887009 0 255 100
0.0379301 -0.0414232 0.88542 0 255 100
0.0380658 -0.0401608 0.888598 0 255 100
0.0380658 -0.0398472 0.888598 0 255 100
0.0335644 -0.0277802 0.919923 0 255 100
0.0335645 -0.0272933 0.919922 0 255 100
0.0333015 -0.0268562 0.921633 0 255 100
0.0335644 -0.0261572 0.919923 0 255 100
0.0333016 -0.0250674 0.921632 0 255 100
0.033364 -0.0246252 0.923343 0 255 100
0.0333016 -0.0240918 0.921632 0 255 100
0.0330381 -0.0229961 0.923343 0 255 100
0.0331616 -0.0211198 0.926795 0 255 100
0.0330995 -0.0202644 0.925071 0 255 100
0.0331612 -0.0198118 0.926801 0 255 100
0.0328957 -0.0178829 0.928537 0 255 100
0.0328958 -0.0173914 0.928535 0 255 100
0.0326292 -0.0157827 0.930277 0 255 100
0.0328958 -0.0150978 0.928535 0 255 100
0.0324226 -0.0122175 0.933781 0 255 100
0.0324229 -0.00678057 0.933776 0 255 100
0.0319441 -0.0020141 0.939087 0 255 100
0.0376847 -0.040089 0.887009 0 255 100
0.0376846 -0.0396195 0.88701 0 255 100
0.0334404 -0.0278392 0.916521 0 255 100
0.0332402 -0.0255077 0.919917 0 255 100
0.0333015 -0.0249049 0.921633 0 255 100
0.0330381 -0.0239736 0.923343 0 255 100
0.0328343 -0.0225916 0.9268 0 255 100
0.0329155 -0.0284293 0.919917 0 255 100
0.0334407 -0.0260603 0.916516 0 255 100
0.0329152 -0.0243717 0.919922 0 255 100
0.0329767 -0.0229534 0.921627 0 255 100
0.0378622 -0.0427531 0.883847 0 255 100
0.0374386 -0.0420422 0.888598 0 255 100
0.0373719 -0.0411843 0.887004 0 255 100
0.0334404 -0.0275158 0.916521 0 255 100
0.0325905 -0.0258325 0.919924 0 255 100
0.0326515 -0.0258804 0.921626 0 255 100
0.0323861 -0.0233221 0.92335 0 255 100
0.0324469 -0.0220597 0.925065 0 255 100
0.0324466 -0.0215702 0.925071 0 255 100
0.0321205 -0.0204275 0.925065 0 255 100
0.0321801 -0.0188307 0.926801 0 255 100
0.0319726 -0.0152903 0.930279 0 255 100
0.0317636 -0.0128765 0.933781 0 255 100
0.0317635 -0.0113938 0.933783 0 255 100
0.0314934 -0.0105899 0.935543 0 255 100
0.0317042 -0.00939894 0.932021 0 255 100
0.0314341 -0.00859291 0.933781 0 255 100
0.0314002 -0.00734403 0.942657 0 255 100
0.0316126 -0.00549362 0.939089 0 255 100
0.0310086 -0.0013539 0.940869 0 255 100
0.0309499 0.000305568 0.939087 0 255 100
0.0372384 -0.0422853 0.883848 0 255 100
0.0369925 -0.0418921 0.885425 0 255 100
0.0370586 -0.0405586 0.88701 0 255 100
0.0368114 -0.0390634 0.8886 0 255 100
0.0325906 -0.0282671 0.919922 0 255 100
0.0325906 -0.0269687 0.919922 0 255 100
0.0325905 -0.0261572 0.919923 0 255 100
0.032326 -0.0247422 0.921632 0 255 100
0.0320602 -0.0233221 0.92335 0 255 100
0.0323865 -0.0210412 0.923343 0 255 100
0.0321205 -0.0201011 0.925065 0 255 100
0.0318535 -0.0165412 0.926794 0 255 100
0.0316447 -0.0139771 0.930272 0 255 100
0.031375 -0.0128523 0.932026 0 255 100
0.0316443 -0.0110227 0.930279 0 255 100
0.0311636 -0.00613311 0.935538 0 255 100
0.0304022 -0.000857517 0.942659 0 255 100
0.0367456 -0.0414976 0.88701 0 255 100
0.0322659 -0.0277802 0.919923 0 255 100
0.032266 -0.0272933 0.919922 0 255 100
0.0320602 -0.0242996 0.92335 0 255 100
0.0320602 -0.0236479 0.92335 0 255 100
0.0320607 -0.0220186 0.923343 0 255 100
0.0320603 -0.02153 0.923348 0 255 100
0.0318535 -0.0194846 0.926794 0 255 100
0.0312575 -0.0170638 0.928535 0 255 100
0.0312578 -0.0146062 0.92853 0 255 100
0.0316754 -0.0275067 0.921633 0 255 100
0.0316755 -0.0253927 0.921632 0 255 100
0.0319414 -0.0243717 0.919922 0 255 100
0.0311407 -0.0207541 0.925072 0 255 100
0.0312575 -0.0190297 0.928535 0 255 100
0.0369924 -0.0436106 0.885426 0 255 100
0.0361197 -0.041967 0.887009 0 255 100
0.0363676 -0.0412672 0.885425 0 255 100
0.03668 -0.0406423 0.885425 0 255 100
0.0316171 -0.0281047 0.919917 0 255 100
0.0314086 -0.0246254 0.92335 0 255 100
0.0314086 -0.0236479 0.92335 0 255 100
0.031409 -0.0229961 0.923343 0 255 100
0.0311991 -0.0199753 0.9268 0 255 100
0.0309877 -0.0192296 0.930279 0 255 100
0.0312574 -0.0188659 0.928537 0 255 100
0.0308719 -0.0181766 0.926801 0 255 100
0.0308719 -0.0178495 0.926801 0 255 100
0.0312575 -0.0167361 0.928535 0 255 100
0.0309297 -0.0162446 0.928537 0 255 100
0.0309301 -0.0149339 0.92853 0 255 100
0.0307172 -0.0131812 0.932026 0 255 100
0.0307751 -0.0128765 0.933781 0 255 100
0.0310461 -0.0112079 0.932026 0 255 100
0.0304455 -0.01057 0.933781 0 255 100
0.0301729 -0.008279 0.935543 0 255 100
0.0301728 -0.00745368 0.935545 0 255 100
0.0302298 -0.00449097 0.937313 0 255 100
0.0299557 -0.00284256 0.939089 0 255 100
0.0299558 -0.00135134 0.939087 0 255 100
0.0363031 -0.0416612 0.883842 0 255 100
0.0361199 -0.0411843 0.887004 0 255 100
0.0361197 -0.040715 0.887009 0 255 100
0.0361844 -0.0404744 0.888598 0 255 100
0.0315582 -0.0285388 0.918218 0 255 100
0.0315585 -0.0270806 0.918213 0 255 100
0.0315582 -0.0262707 0.918218 0 255 100
0.0312921 -0.0259948 0.919922 0 255 100
0.0313506 -0.0245795 0.921626 0 255 100
0.0310828 -0.0236479 0.92335 0 255 100
0.0311407 -0.0223863 0.925072 0 255 100
0.0308719 -0.0191577 0.926801 0 255 100
0.0308723 -0.0175223 0.926794 0 255 100
0.0308719 -0.0162143 0.926801 0 255 100
0.0309301 -0.0155892 0.92853 0 255 100
0.0309301 -0.0146062 0.92853 0 255 100
0.0306025 -0.0139509 0.92853 0 255 100
0.0303886 -0.0103856 0.932021 0 255 100
0.0296806 -0.00201793 0.940869 0 255 100
0.0360552 -0.0409547 0.885425 0 255 100
0.0358069 -0.0393063 0.887004 0 255 100
0.0312921 -0.0276179 0.919922 0 255 100
0.0310254 -0.023929 0.921627 0 255 100
0.0306599 -0.0152902 0.930272 0 255 100
0.0300029 -0.0143055 0.930279 0 255 100
0.0295687 -0.0061447 0.937306 0 255 100
0.0309675 -0.0279425 0.919922 0 255 100
0.0306999 -0.027344 0.921632 0 255 100
0.0307002 -0.0245795 0.921626 0 255 100
0.0304879 -0.0227128 0.925072 0 255 100
0.0312921 -0.0217748 0.919922 0 255 100
0.029238 -0.00515244 0.937306 0 255 100
0.0354303 -0.0418921 0.885425 0 255 100
0.0357426 -0.041111 0.885426 0 255 100
0.0354305 -0.0411107 0.88542 0 255 100
0.0306429 -0.0285917 0.919922 0 255 100
0.0306429 -0.0276179 0.919922 0 255 100
0.0306998 -0.0271814 0.921633 0 255 100
0.0306999 -0.0266936 0.921632 0 255 100
0.0303745 -0.0262058 0.921633 0 255 100
0.0306429 -0.0256702 0.919922 0 255 100
0.0304311 -0.0252771 0.92335 0 255 100
0.0304312 -0.0241366 0.923348 0 255 100
0.0304311 -0.0236479 0.92335 0 255 100
0.0301615 -0.0222231 0.925071 0 255 100
0.0301614 -0.0217334 0.925072 0 255 100
0.0302744 -0.0198489 0.928537 0 255 100
0.0302178 -0.0191577 0.926801 0 255 100
0.0299467 -0.0178829 0.928537 0 255 100
0.0298912 -0.0168682 0.926794 0 255 100
0.0296748 -0.0154544 0.930277 0 255 100
0.0297305 -0.013839 0.932026 0 255 100
0.0297309 -0.0130167 0.932021 0 255 100
0.0294016 -0.0121946 0.932026 0 255 100
0.0294574 -0.0104052 0.933776 0 255 100
0.0296748 -0.0082324 0.930277 0 255 100
0.0289616 -0.00764759 0.939087 0 255 100
0.0289616 -0.00532792 0.939087 0 255 100
0.0290716 -0.00318601 0.942659 0 255 100
0.0289068 -0.00217568 0.937313 0 255 100
0.0284068 0.000140409 0.942652 0 255 100
0.0285148 0.000808769 0.946257 0 255 100
0.0353671 -0.0424412 0.883847 0 255 100
0.0353671 -0.0415055 0.883846 0 255 100
0.0354305 -0.0404858 0.88542 0 255 100
0.0354303 -0.03908 0.885425 0 255 100
0.0305861 -0.0283768 0.91822 0 255 100
0.0305862 -0.0278908 0.918218 0 255 100
0.0303183 -0.0243717 0.919922 0 255 100
0.0301054 -0.0238108 0.923348 0 255 100
0.0301053 -0.0233221 0.92335 0 255 100
0.0301053 -0.0226705 0.92335 0 255 100
0.0301615 -0.0209173 0.925071 0 255 100
0.029835 -0.0197748 0.925072 0 255 100
0.0298908 -0.0181766 0.926801 0 255 100
0.0293468 -0.0133206 0.930272 0 255 100
0.0288523 -0.00992965 0.935543 0 255 100
0.0288522 -0.00184144 0.935545 0 255 100
0.0303183 -0.0279425 0.919922 0 255 100
0.0297794 -0.0249513 0.92335 0 255 100
0.0300494 -0.0231161 0.921632 0 255 100
0.0297794 -0.0226705 0.92335 0 255 100
0.0295642 -0.0168682 0.926794 0 255 100
0.0291274 -0.0127118 0.933783 0 255 100
0.0294537 -0.0225075 0.923348 0 255 100
0.0350551 -0.0435328 0.883848 0 255 100
0.0297799 -0.0262544 0.923343 0 255 100
0.0297242 -0.024417 0.921632 0 255 100
0.0297794 -0.0236479 0.92335 0 255 100
0.0294537 -0.0231592 0.923348 0 255 100
0.0291821 -0.0217334 0.925072 0 255 100
0.0291821 -0.019122 0.925072 0 255 100
0.0289639 -0.0173914 0.928535 0 255 100
0.0282457 -0.00482169 0.937306 0 255 100
0.0280205 -0.00400999 0.940869 0 255 100
0.0280738 -0.000358553 0.942657 0 255 100
0.0349928 -0.0439223 0.882274 0 255 100
0.0345546 -0.042593 0.887009 0 255 100
0.0345549 -0.0414973 0.887004 0 255 100
0.0343033 -0.0409445 0.888594 0 255 100
0.0344932 -0.0404858 0.88542 0 255 100
0.029938 -0.0287009 0.91822 0 255 100
0.0297241 -0.0284823 0.921633 0 255 100
0.0297242 -0.0279944 0.921632 0 255 100
0.029669 -0.0269687 0.919922 0 255 100
0.029669 -0.0263194 0.919922 0 255 100
0.0305296 -0.0252519 0.916521 0 255 100
0.0294537 -0.0241366 0.923348 0 255 100
0.0294537 -0.0221817 0.923348 0 255 100
0.0291821 -0.0207541 0.925072 0 255 100
0.0289639 -0.0183744 0.928535 0 255 100
0.0286898 -0.0162751 0.930279 0 255 100
0.0286899 -0.0154544 0.930277 0 255 100
0.0286365 -0.0142786 0.92853 0 255 100
0.0289642 -0.0139509 0.92853 0 255 100
0.0287979 -0.00809867 0.933783 0 255 100
0.0284685 -0.00694537 0.933781 0 255 100
0.0279146 -0.00664087 0.937312 0 255 100
0.0276361 -0.00532792 0.939087 0 255 100
0.0342416 -0.041967 0.887009 0 255 100
0.0344929 -0.0412672 0.885425 0 255 100
0.0342419 -0.0399323 0.887004 0 255 100
0.0296141 -0.0285388 0.918218 0 255 100
0.0293993 -0.0275065 0.921626 0 255 100
0.0296694 -0.0271308 0.919917 0 255 100
0.0297245 -0.0265308 0.921627 0 255 100
0.0291282 -0.0246252 0.923343 0 255 100
0.0291278 -0.0239738 0.92335 0 255 100
0.0291278 -0.0233221 0.92335 0 255 100
0.0288561 -0.0227126 0.925065 0 255 100
0.0289096 -0.0207929 0.926801 0 255 100
0.0286362 -0.0190297 0.928535 0 255 100
0.0283617 -0.017424 0.930277 0 255 100
0.0283617 -0.0154544 0.930277 0 255 100
0.028362 -0.0143054 0.930272 0 255 100
0.0280864 -0.0133456 0.932021 0 255 100
0.028086 -0.0126879 0.932028 0 255 100
0.0280861 -0.0118657 0.932026 0 255 100
0.0280861 -0.010879 0.932026 0 255 100
0.0275842 -0.00449094 0.937306 0 255 100
0.0270758 -0.000192233 0.942659 0 255 100
0.0288021 -0.02544 0.923348 0 255 100
0.0290741 -0.0236038 0.921626 0 255 100
0.0285294 -0.0225495 0.925071 0 255 100
0.0285294 -0.019938 0.925071 0 255 100
0.0288021 -0.0247883 0.923348 0 255 100
0.0286951 -0.0277802 0.919923 0 255 100
0.0287485 -0.0263683 0.921632 0 255 100
0.0287484 -0.0258805 0.921633 0 255 100
0.0279809 -0.0183744 0.928535 0 255 100
0.0274798 -0.0110643 0.933783 0 255 100
0.0270249 -0.00650003 0.940863 0 255 100
0.0266924 -0.00218394 0.940871 0 255 100
0.033808 -0.042285 0.883842 0 255 100
0.0337363 -0.0414894 0.890194 0 255 100
0.0336759 -0.0401608 0.888598 0 255 100
0.0286951 -0.0284295 0.919923 0 255 100
0.0287485 -0.0276692 0.921632 0 255 100
0.0287484 -0.0268562 0.921633 0 255 100
0.0284233 -0.0263683 0.921632 0 255 100
0.0284233 -0.0257179 0.921632 0 255 100
0.0284233 -0.0250674 0.921632 0 255 100
0.0284232 -0.0245797 0.921633 0 255 100
0.0284762 -0.0241366 0.923348 0 255 100
0.0284762 -0.023485 0.923348 0 255 100
0.0282028 -0.0230392 0.925072 0 255 100
0.0284761 -0.0223446 0.92335 0 255 100
0.0282028 -0.0220599 0.925072 0 255 100
0.0282028 -0.0210806 0.925072 0 255 100
0.0279289 -0.0204657 0.926794 0 255 100
0.0279286 -0.0193212 0.9268 0 255 100
0.0279809 -0.0190297 0.928535 0 255 100
0.027705 -0.0166034 0.930279 0 255 100
0.0279289 -0.0142519 0.926794 0 255 100
0.0273767 -0.0136489 0.930279 0 255 100
0.0271505 -0.01057 0.933781 0 255 100
0.0265915 -0.00581399 0.937313 0 255 100
0.0335556 -0.0437667 0.885425 0 255 100
0.0333026 -0.04228 0.887009 0 255 100
0.0286424 -0.0280526 0.918213 0 255 100
0.0286951 -0.0268064 0.919924 0 255 100
0.0284233 -0.0263683 0.921632 0 255 100
0.0283705 -0.0242094 0.919923 0 255 100
0.0282028 -0.0217334 0.925072 0 255 100
0.0278768 -0.020754 0.925065 0 255 100
0.0276016 -0.0189941 0.9268 0 255 100
0.0273259 -0.0178828 0.92853 0 255 100
0.0273772 -0.0169315 0.930272 0 255 100
0.0270994 -0.0118657 0.932026 0 255 100
0.0334961 -0.0432207 0.883842 0 255 100
0.0333026 -0.04228 0.887009 0 255 100
0.0333029 -0.0399323 0.887004 0 255 100
0.0280984 -0.0275065 0.921627 0 255 100
0.0280981 -0.0224657 0.921632 0 255 100
0.0328723 -0.0425969 0.883842 0 255 100
0.027994 -0.0278908 0.918218 0 255 100
0.0280463 -0.026157 0.919917 0 255 100
0.0277729 -0.024417 0.921632 0 255 100
0.027224 -0.0204275 0.925065 0 255 100
0.0267203 -0.013813 0.930277 0 255 100
0.032872 -0.0443125 0.883846 0 255 100
0.0328719 -0.0438447 0.883848 0 255 100
0.0277213 -0.0285917 0.919922 0 255 100
0.0274476 -0.0260431 0.921632 0 255 100
0.0274475 -0.0239292 0.921633 0 255 100
0.0272236 -0.0232024 0.925071 0 255 100
0.0271729 -0.0225075 0.923348 0 255 100
0.0272236 -0.0218966 0.925071 0 255 100
0.0272236 -0.0212438 0.925071 0 255 100
0.0272236 -0.0173265 0.925071 0 255 100
0.0267203 -0.0157827 0.930277 0 255 100
0.026392 -0.0147979 0.930277 0 255 100
0.0263919 -0.0136489 0.930279 0 255 100
0.0267202 -0.0126641 0.930279 0 255 100
0.0261127 -0.0118657 0.932026 0 255 100
0.0261126 -0.00907012 0.932028 0 255 100
0.0258812 -0.00860913 0.935543 0 255 100
0.0259301 -0.00697163 0.937312 0 255 100
0.0255992 -0.00548324 0.937313 0 255 100
0.0256965 -0.00467401 0.940869 0 255 100
0.0256478 -0.00333963 0.939087 0 255 100
0.0254126 0.000473052 0.942659 0 255 100
0.0326182 -0.0423608 0.885426 0 255 100
0.0326766 -0.041341 0.887009 0 255 100
0.0324219 -0.0403174 0.888594 0 255 100
0.0273967 -0.0285917 0.919922 0 255 100
0.0274475 -0.0268562 0.921633 0 255 100
0.0273967 -0.0263194 0.919922 0 255 100
0.0271729 -0.0247883 0.923348 0 255 100
0.0272744 -0.0237363 0.926801 0 255 100
0.0271733 -0.0220186 0.923343 0 255 100
0.0271733 -0.0210412 0.923343 0 255 100
0.0266706 -0.0191934 0.92853 0 255 100
0.0266203 -0.0165413 0.926801 0 255 100
0.0261131 -0.0113723 0.932021 0 255 100
0.0253164 -0.0020141 0.939087 0 255 100
0.0325604 -0.0441563 0.883842 0 255 100
0.0323635 -0.0405586 0.88701 0 255 100
0.0273966 -0.0258325 0.919923 0 255 100
0.0268975 -0.023039 0.925065 0 255 100
0.0265706 -0.0201013 0.925072 0 255 100
0.0261127 -0.0121946 0.932026 0 255 100
0.0323057 -0.0423608 0.885426 0 255 100
0.0270219 -0.0277288 0.91822 0 255 100
0.0267474 -0.027131 0.919924 0 255 100
0.0322485 -0.0441563 0.883842 0 255 100
0.0320509 -0.0427493 0.887004 0 255 100
0.0319091 -0.0420359 0.89179 0 255 100
0.0317379 -0.0402453 0.887004 0 255 100
0.0267474 -0.0281049 0.919923 0 255 100
0.027072 -0.0251833 0.919924 0 255 100
0.0264719 -0.0242544 0.921633 0 255 100
0.0264723 -0.0229534 0.921627 0 255 100
0.026472 -0.0218152 0.921632 0 255 100
0.0261954 -0.0212042 0.923348 0 255 100
0.0262447 -0.0201011 0.925065 0 255 100
0.0261954 -0.0179459 0.923348 0 255 100
0.0262443 -0.0163472 0.925071 0 255 100
0.025455 -0.013839 0.932026 0 255 100
0.0255028 -0.0130413 0.933783 0 255 100
0.0254071 -0.0126641 0.930279 0 255 100
0.0251264 -0.0113723 0.932021 0 255 100
0.0246069 -0.00316795 0.937313 0 255 100
0.0316808 -0.0414235 0.885426 0 255 100
0.0314249 -0.0408713 0.887004 0 255 100
0.0314246 -0.039776 0.887009 0 255 100
0.0267474 -0.0277803 0.919923 0 255 100
0.0264723 -0.0265308 0.921627 0 255 100
0.0264719 -0.0258806 0.921633 0 255 100
0.0264719 -0.0242544 0.921633 0 255 100
0.0259182 -0.0243448 0.925065 0 255 100
0.0259178 -0.0233656 0.925072 0 255 100
0.0261467 -0.0218152 0.921632 0 255 100
0.0248442 -0.00809861 0.933776 0 255 100
0.0239913 0.000139877 0.939081 0 255 100
0.0256393 -0.0193212 0.9268 0 255 100
0.02536 -0.0165722 0.92853 0 255 100
0.0260981 -0.0268064 0.919924 0 255 100
0.031056 -0.042517 0.885425 0 255 100
0.0307986 -0.041654 0.887009 0 255 100
0.0257735 -0.0277803 0.919923 0 255 100
0.0258214 -0.0271814 0.921633 0 255 100
0.0257735 -0.0268064 0.919923 0 255 100
0.0255441 -0.0249511 0.923343 0 255 100
0.0256876 -0.0247636 0.92853 0 255 100
0.0258219 -0.023929 0.921627 0 255 100
0.0255438 -0.0225075 0.923348 0 255 100
0.0255441 -0.0220186 0.923343 0 255 100
0.0249386 -0.019938 0.925071 0 255 100
0.0249389 -0.0184689 0.925065 0 255 100
0.025032 -0.0177191 0.928535 0 255 100
0.025265 -0.0163472 0.925071 0 255 100
0.0244224 -0.0147979 0.930277 0 255 100
0.0245147 -0.0123822 0.933776 0 255 100
0.0241393 -0.00939901 0.932028 0 255 100
0.0236599 -0.0051622 0.939081 0 255 100
0.0236595 -0.00333963 0.939087 0 255 100
0.0233724 -0.00268195 0.940869 0 255 100
0.0233281 -0.00135134 0.939087 0 255 100
0.031001 -0.0441563 0.883842 0 255 100
0.0307986 -0.038837 0.887009 0 255 100
0.0257736 -0.0269687 0.919922 0 255 100
0.0254967 -0.0265308 0.921627 0 255 100
0.0252178 -0.0252771 0.92335 0 255 100
0.0252178 -0.0246254 0.92335 0 255 100
0.0254963 -0.0234413 0.921632 0 255 100
0.0249389 -0.023039 0.925065 0 255 100
0.0249386 -0.0218966 0.925071 0 255 100
0.0246581 -0.0196482 0.9268 0 255 100
0.0247042 -0.0185383 0.928537 0 255 100
0.0243767 -0.0167361 0.928535 0 255 100
0.0246585 -0.015233 0.926794 0 255 100
0.0240945 -0.0139771 0.930272 0 255 100
0.0244224 -0.0128282 0.930277 0 255 100
0.0230841 0.00014041 0.942659 0 255 100
0.0230842 0.00230258 0.942657 0 255 100
0.0304311 -0.0397049 0.885425 0 255 100
0.0254494 -0.0274554 0.919917 0 255 100
0.0248925 -0.0220186 0.923343 0 255 100
0.0251244 -0.0279425 0.919922 0 255 100
0.0254494 -0.0258323 0.919917 0 255 100
0.0245667 -0.0223445 0.923343 0 255 100
0.024049 -0.0167361 0.928535 0 255 100
0.0241847 -0.0163364 0.933783 0 255 100
0.023482 -0.0146611 0.932021 0 255 100
0.0235706 -0.0117453 0.935538 0 255 100
0.0232844 -0.00879073 0.937306 0 255 100
0.0229537 -0.00812922 0.937306 0 255 100
0.0229536 -0.00779847 0.937306 0 255 100
0.0224189 -0.000691195 0.942657 0 255 100
0.0303772 -0.0429088 0.883842 0 255 100
0.0248459 -0.0279944 0.921632 0 255 100
0.0247996 -0.027131 0.919923 0 255 100
0.0245663 -0.023485 0.923348 0 255 100
0.0242404 -0.0226705 0.92335 0 255 100
0.0240044 -0.0204657 0.926794 0 255 100
0.024004 -0.0170319 0.9268 0 255 100
0.023394 -0.0126403 0.92853 0 255 100
0.02291 -0.00497768 0.935543 0 255 100
0.0220863 -0.000691195 0.942657 0 255 100
0.0299131 -0.0439236 0.888598 0 255 100
0.0298062 -0.0431418 0.885425 0 255 100
0.0241505 -0.0263194 0.919922 0 255 100
0.0238702 -0.0224657 0.921632 0 255 100
0.0233503 -0.0201387 0.926795 0 255 100
0.023066 -0.0147701 0.928535 0 255 100
0.0228242 -0.0126878 0.932021 0 255 100
0.02291 -0.0112502 0.935543 0 255 100
0.0228237 -0.00775455 0.932028 0 255 100
0.0216712 -0.00300825 0.939087 0 255 100
0.0213802 -0.00151991 0.94087 0 255 100
0.0297531 -0.0418174 0.883847 0 255 100
0.0294937 -0.041111 0.885426 0 255 100
0.0238702 -0.0263683 0.921632 0 255 100
0.0233503 -0.0204657 0.926794 0 255 100
0.0230228 -0.0175225 0.926801 0 255 100
0.0235888 -0.0244625 0.923348 0 255 100
0.0233064 -0.0222231 0.925071 0 255 100
0.0221661 -0.013839 0.932026 0 255 100
0.0291814 -0.0428294 0.885425 0 255 100
0.0288689 -0.0418921 0.885425 0 255 100
0.0232197 -0.0253927 0.921632 0 255 100
0.02298 -0.0235288 0.925071 0 255 100
0.0229798 -0.0207541 0.925072 0 255 100
0.0226959 -0.0199753 0.9268 0 255 100
0.0226962 -0.0185035 0.926794 0 255 100
0.0224531 -0.016275 0.930272 0 255 100
0.022781 -0.0200502 0.930277 0 255 100
0.0226535 -0.0192851 0.925071 0 255 100
0.0224107 -0.0164084 0.928535 0 255 100
0.0218372 -0.0121946 0.932026 0 255 100
0.0215488 -0.0102405 0.933781 0 255 100
0.0217966 -0.0136488 0.930272 0 255 100
0.0288178 -0.0432207 0.883842 0 255 100
0.0282945 -0.041654 0.887009 0 255 100
0.0285565 -0.0409547 0.885425 0 255 100
0.0226112 -0.0246254 0.92335 0 255 100
0.0226113 -0.0228333 0.923348 0 255 100
0.0226113 -0.02153 0.923348 0 255 100
0.0223271 -0.0196116 0.925071 0 255 100
0.0220416 -0.0191577 0.926801 0 255 100
0.0217554 -0.0183744 0.928535 0 255 100
0.0217558 -0.0159169 0.92853 0 255 100
0.022083 -0.0200127 0.928535 0 255 100
0.0214281 -0.0139509 0.92853 0 255 100
0.0281937 -0.0427531 0.883847 0 255 100
0.0274538 -0.038034 0.890194 0 255 100
0.0216741 -0.0201013 0.925072 0 255 100
0.0196833 -0.0035053 0.939081 0 255 100
0.0222444 -0.0258804 0.921627 0 255 100
0.02196 -0.0236478 0.923343 0 255 100
0.0216339 -0.0208784 0.923348 0 255 100
0.0219189 -0.0257179 0.921632 0 255 100
0.0228521 -0.0253456 0.919922 0 255 100
0.0208505 -0.0121946 0.932026 0 255 100
0.0205601 -0.00842818 0.933783 0 255 100
0.0226962 -0.0194846 0.926794 0 255 100
0.0236328 -0.0163472 0.925071 0 255 100
0.0196116 -0.0487221 0.951704 0 255 100
0.030431 -0.0414235 0.885426 0 255 100
0.0250779 -0.0269187 0.918218 0 255 100
0.0245663 -0.02544 0.923348 0 255 100
0.0245205 -0.0245797 0.921633 0 255 100
0.0247996 -0.0242094 0.919923 0 255 100
0.0242404 -0.0207155 0.92335 0 255 100
0.023677 -0.017686 0.9268 0 255 100
0.0233937 -0.0111659 0.928535 0 255 100
0.0237217 -0.0136233 0.92853 0 255 100
0.0316244 -0.0430649 0.883847 0 255 100
0.0255441 -0.0239736 0.923343 0 255 100
0.0249384 -0.0165105 0.925072 0 255 100
0.0236148 -0.00697163 0.937312 0 255 100
0.0318795 -0.0439223 0.882274 0 255 100
0.0314245 -0.0399325 0.88701 0 255 100
0.0260982 -0.0269687 0.919922 0 255 100
0.0261471 -0.023929 0.921626 0 255 100
0.0255437 -0.0233221 0.92335 0 255 100
0.025265 -0.0209173 0.925071 0 255 100
0.0247047 -0.0152616 0.92853 0 255 100
0.0241393 -0.0103857 0.932028 0 255 100
0.0261471 -0.0265308 0.921627 0 255 100
0.0264229 -0.0246963 0.919922 0 255 100
0.0258695 -0.0207155 0.92335 0 255 100
0.0255918 -0.0201011 0.925065 0 255 100
0.0253596 -0.0177191 0.928535 0 255 100
0.025032 -0.0157531 0.928535 0 255 100
0.0250319 -0.013951 0.928537 0 255 100
0.0329306 -0.0404861 0.885426 0 255 100
0.0276699 -0.0267567 0.91822 0 255 100
0.0263426 -0.0157531 0.928535 0 255 100
0.0331838 -0.0438447 0.883848 0 255 100
0.0331839 -0.0421293 0.883846 0 255 100
0.0329896 -0.040089 0.887009 0 255 100
0.0277212 -0.0268064 0.919923 0 255 100
0.0273966 -0.0261572 0.919923 0 255 100
0.027448 -0.0249047 0.921627 0 255 100
0.0273971 -0.0245339 0.919917 0 255 100
0.0273967 -0.0237225 0.919922 0 255 100
0.0266204 -0.0186671 0.9268 0 255 100
0.0266203 -0.0175225 0.926801 0 255 100
0.026392 -0.0147979 0.930277 0 255 100
0.0260638 -0.013813 0.930277 0 255 100
0.0260636 -0.0129924 0.930279 0 255 100
0.0257839 -0.0112079 0.932026 0 255 100
0.0255029 -0.0079339 0.933781 0 255 100
0.0243688 0.000140142 0.940863 0 255 100
0.0244616 0.00180704 0.944448 0 255 100
0.0334957 -0.0419734 0.883848 0 255 100
0.0332431 -0.0412672 0.885425 0 255 100
0.0277212 -0.0258325 0.919923 0 255 100
0.0277213 -0.0253456 0.919922 0 255 100
0.0272236 -0.0196116 0.925071 0 255 100
0.0269473 -0.0165413 0.926801 0 255 100
0.026392 -0.013813 0.930277 0 255 100
0.0261127 -0.0105501 0.932026 0 255 100
0.0252686 -0.00465634 0.937312 0 255 100
0.0247473 0.000805694 0.942659 0 255 100
0.0280981 -0.0234413 0.921632 0 255 100
0.0341808 -0.0423605 0.88542 0 255 100
0.0341808 -0.0401734 0.88542 0 255 100
0.0290198 -0.0276179 0.919922 0 255 100
0.0287485 -0.024417 0.921632 0 255 100
0.0284762 -0.0225075 0.923348 0 255 100
0.0268714 -0.00910434 0.935545 0 255 100
0.0344929 -0.0428294 0.885425 0 255 100
0.0344932 -0.0414232 0.88542 0 255 100
0.0342415 -0.0402455 0.88701 0 255 100
0.02929 -0.0267568 0.91822 0 255 100
0.0290201 -0.0268062 0.919917 0 255 100
0.0287489 -0.0255551 0.921626 0 255 100
0.0288021 -0.0241366 0.923348 0 255 100
0.0285294 -0.0218966 0.925071 0 255 100
0.0285297 -0.0214068 0.925065 0 255 100
0.0284762 -0.0192492 0.923348 0 255 100
0.0285292 -0.0174898 0.925072 0 255 100
0.0279809 -0.0154255 0.928535 0 255 100
0.0280337 -0.0149619 0.930272 0 255 100
0.0277055 -0.0133206 0.930272 0 255 100
0.027705 -0.0126641 0.930279 0 255 100
0.0274282 -0.0120301 0.932028 0 255 100
0.027705 -0.0116793 0.930279 0 255 100
0.0265916 -0.00300256 0.937312 0 255 100
0.0348053 -0.0429857 0.885426 0 255 100
0.0348057 -0.0407983 0.88542 0 255 100
0.0344929 -0.0397049 0.885425 0 255 100
0.0290738 -0.0234413 0.921632 0 255 100
0.0285827 -0.0206294 0.9268 0 255 100
0.0285826 -0.0181766 0.926801 0 255 100
0.027202 -0.00580298 0.935538 0 255 100
0.0357427 -0.0412672 0.885425 0 255 100
0.0303183 -0.0276179 0.919922 0 255 100
0.0306999 -0.0266936 0.921632 0 255 100
0.0306999 -0.0247422 0.921632 0 255 100
0.0303182 -0.0235602 0.919924 0 255 100
0.0300494 -0.0221404 0.921632 0 255 100
0.0301614 -0.0201013 0.925072 0 255 100
0.0295638 -0.0153966 0.9268 0 255 100
0.0292915 -0.0147701 0.928535 0 255 100
0.0293468 -0.0113509 0.930272 0 255 100
0.0287439 -0.0102212 0.932026 0 255 100
0.0282454 -0.00465634 0.937312 0 255 100
0.0282453 -0.00316795 0.937313 0 255 100
0.0279674 -0.00118565 0.939089 0 255 100
0.0279678 0.000139877 0.939081 0 255 100
0.0375506 0.0275777 0.883842 0 255 100
0.0363028 -0.0440006 0.883847 0 255 100
0.0363031 -0.0432207 0.883842 0 255 100
0.0360554 -0.0407983 0.88542 0 255 100
0.0358067 -0.040089 0.887009 0 255 100
0.0358066 -0.039463 0.887009 0 255 100
0.0306999 -0.0270188 0.921632 0 255 100
0.0309675 -0.0263194 0.919922 0 255 100
0.0304315 -0.0239736 0.923343 0 255 100
0.0304315 -0.0226703 0.923343 0 255 100
0.0306998 -0.0216527 0.921633 0 255 100
0.0301619 -0.0194482 0.925065 0 255 100
0.0298912 -0.0175223 0.926794 0 255 100
0.0298909 -0.0167048 0.9268 0 255 100
0.029402 -0.01203 0.932021 0 255 100
0.0288523 -0.00959952 0.935543 0 255 100
0.0291275 -0.00859291 0.933781 0 255 100
0.0285761 -0.00498709 0.937312 0 255 100
0.0403343 0.0305189 0.869886 0 255 100
0.0368608 -0.0442336 0.882274 0 255 100
0.0363676 -0.0415796 0.885425 0 255 100
0.0312921 -0.0276179 0.919922 0 255 100
0.031292 -0.027131 0.919923 0 255 100
0.0315582 -0.0259467 0.918218 0 255 100
0.0310251 -0.0253927 0.921632 0 255 100
0.0310254 -0.023929 0.921627 0 255 100
0.030488 -0.0222231 0.925071 0 255 100
0.030488 -0.0215702 0.925071 0 255 100
0.0305453 -0.0175223 0.926794 0 255 100
0.0302748 -0.0159169 0.92853 0 255 100
0.0300029 -0.0136489 0.930279 0 255 100
0.0297309 -0.0123589 0.932021 0 255 100
0.0297309 -0.0113723 0.932021 0 255 100
0.0291828 -0.0071235 0.935538 0 255 100
0.0289072 -0.00349868 0.937306 0 255 100
0.0322663 -0.0274554 0.919917 0 255 100
0.032266 -0.0250209 0.919922 0 255 100
0.0320603 -0.023485 0.923348 0 255 100
0.0320603 -0.02153 0.923348 0 255 100
0.0317936 -0.019122 0.925072 0 255 100
0.0311991 -0.018013 0.9268 0 255 100
0.0312575 -0.0170638 0.928535 0 255 100
0.0312578 -0.0162445 0.92853 0 255 100
0.0313161 -0.0128282 0.930277 0 255 100
0.0307172 -0.0118657 0.932026 0 255 100
0.0310461 -0.010879 0.932026 0 255 100
0.0304454 -0.00645112 0.933783 0 255 100
0.0304454 -0.0057921 0.933783 0 255 100
0.0298991 -0.00101803 0.937312 0 255 100
0.0381061 -0.0437667 0.882275 0 255 100
0.0379297 -0.0429857 0.885426 0 255 100
0.0379297 -0.0414235 0.885426 0 255 100
0.0376174 -0.0409547 0.885425 0 255 100
0.0376174 -0.0397049 0.885425 0 255 100
0.0328543 -0.0269187 0.918218 0 255 100
0.0325909 -0.0264816 0.919917 0 255 100
0.0325906 -0.0253456 0.919922 0 255 100
0.0323263 -0.0229534 0.921627 0 255 100
0.0318535 -0.0198116 0.926794 0 255 100
0.0317936 -0.0187955 0.925072 0 255 100
0.031853 -0.0181766 0.926801 0 255 100
0.0318535 -0.0175223 0.926794 0 255 100
0.0318535 -0.0165412 0.926794 0 255 100
0.0313164 -0.0129923 0.930272 0 255 100
0.0310461 -0.0102212 0.932026 0 255 100
0.0307751 -0.00925193 0.933781 0 255 100
0.0305607 -0.0056486 0.937312 0 255 100
0.0302875 -0.00217978 0.939081 0 255 100
0.0300696 -0.000192233 0.942659 0 255 100
0.0300697 0.00030673 0.942657 0 255 100
0.0414732 0.029909 0.874494 0 255 100
0.0382423 -0.0431418 0.885425 0 255 100
0.0379976 -0.0396195 0.88701 0 255 100
0.0376847 -0.038837 0.887009 0 255 100
0.0332402 -0.0274554 0.919917 0 255 100
0.0329152 -0.0259948 0.919922 0 255 100
0.0329763 -0.0252301 0.921633 0 255 100
0.0329764 -0.0247422 0.921632 0 255 100
0.0329151 -0.0242094 0.919924 0 255 100
0.0324466 -0.0225495 0.925071 0 255 100
0.0327123 -0.0220186 0.923343 0 255 100
0.0324469 -0.0184689 0.925065 0 255 100
0.0321801 -0.0171954 0.926801 0 255 100
0.031973 -0.0152902 0.930272 0 255 100
0.0317039 -0.0118657 0.932026 0 255 100
0.0317042 -0.0110434 0.932021 0 255 100
0.0325072 -0.0163778 0.9268 0 255 100
0.0386929 -0.0395337 0.888598 0 255 100
0.0394216 -0.0413496 0.883848 0 255 100
0.0344747 -0.0270806 0.918213 0 255 100
0.0342772 -0.0262058 0.921633 0 255 100
0.0342136 -0.0258325 0.919924 0 255 100
0.0342772 -0.0252301 0.921633 0 255 100
0.0342136 -0.0248587 0.919923 0 255 100
0.0340152 -0.0242996 0.92335 0 255 100
0.0340152 -0.0239738 0.92335 0 255 100
