ply
format ascii 1.0
element vertex 1212
property float x
property float y
property float z
property uchar red
property uchar green
property uchar blue
end_header
0.0417477 -0.012031 0.860593 0 255 100
0.0413986 -0.0101106 0.860592 0 255 100
0.0411312 -0.00943104 0.862306 0 255 100
0.0411312 -0.00838147 0.862306 0 255 100
0.0408628 -0.00734652 0.864027 0 255 100
0.0407259 0.0126588 0.853796 0 255 100
0.0471058 0.0272218 0.803107 0 255 100
0.0494962 0.0326259 0.784194 0 255 100
0.0498616 0.0330824 0.779955 0 255 100
0.0503132 0.0345402 0.777154 0 255 100
0.0544987 -0.0567403 0.801627 0 255 100
0.054274 -0.0561939 0.803114 0 255 100
0.0534952 -0.0514969 0.806099 0 255 100
0.0470048 -0.0362045 0.842174 0 255 100
0.0461593 -0.0325726 0.845464 0 255 100
0.0452188 -0.0262778 0.847113 0 255 100
0.0447061 -0.0251735 0.850447 0 255 100
0.0447061 -0.0244834 0.850447 0 255 100
0.0435831 -0.0195956 0.855483 0 255 100
0.0427107 -0.0140979 0.858878 0 255 100
0.0424461 -0.0129039 0.860592 0 255 100
0.0420969 -0.0111581 0.860592 0 255 100
0.0419144 -0.0105015 0.864027 0 255 100
0.0417478 -0.00801564 0.860592 0 255 100
0.0412957 -0.00700996 0.865755 0 255 100
0.0431563 -0.000500662 0.84712 0 255 100
0.0545999 -0.0547275 0.803112 0 255 100
0.0474388 -0.0328515 0.843816 0 255 100
0.0557997 -0.0567403 0.801627 0 255 100
0.0555776 -0.0558676 0.803108 0 255 100
0.0484658 -0.036275 0.843816 0 255 100
0.0476244 -0.0322926 0.847119 0 255 100
0.0475313 -0.0313721 0.845466 0 255 100
0.0475314 -0.0305145 0.845464 0 255 100
0.0472807 -0.0298868 0.847118 0 255 100
0.0469373 -0.0279962 0.847113 0 255 100
0.0465936 -0.0262778 0.847113 0 255 100
0.046685 -0.0256406 0.848774 0 255 100
0.0460862 -0.0236209 0.850449 0 255 100
0.0459216 -0.0230212 0.853804 0 255 100
0.0458312 -0.0222845 0.852123 0 255 100
0.0455756 -0.0209426 0.853796 0 255 100
0.0450605 -0.0178955 0.857177 0 255 100
0.0447125 -0.0159829 0.857183 0 255 100
0.0441042 -0.0121814 0.858884 0 255 100
0.0434936 -0.00941229 0.860592 0 255 100
0.050454 0.029017 0.794271 0 255 100
0.0567756 -0.0580408 0.80162 0 255 100
0.0564501 -0.0567403 0.801627 0 255 100
0.0563335 -0.0562983 0.804607 0 255 100
0.056229 -0.0555422 0.803114 0 255 100
0.0562291 -0.0547275 0.803112 0 255 100
0.0559032 -0.053913 0.803114 0 255 100
0.0556807 -0.0518912 0.804605 0 255 100
0.0553545 -0.0507483 0.8046 0 255 100
0.0493007 -0.0378393 0.840539 0 255 100
0.0490548 -0.0360337 0.842176 0 255 100
0.0488082 -0.0355903 0.843816 0 255 100
0.0488082 -0.0349056 0.843816 0 255 100
0.0484658 -0.0338785 0.843816 0 255 100
0.0482177 -0.0317148 0.845458 0 255 100
0.0482177 -0.0310288 0.845458 0 255 100
0.0479684 -0.029371 0.847113 0 255 100
0.0476247 -0.0286836 0.847113 0 255 100
0.0477181 -0.0280511 0.848774 0 255 100
0.0474665 -0.0272438 0.850447 0 255 100
0.0473737 -0.0263293 0.848774 0 255 100
0.0471217 -0.0256909 0.850441 0 255 100
0.0467767 -0.0239657 0.850441 0 255 100
0.0465231 -0.02263 0.852116 0 255 100
0.045922 -0.0209426 0.853796 0 255 100
0.0461773 -0.0202099 0.852115 0 255 100
0.0460124 -0.0175132 0.855491 0 255 100
0.045408 -0.0152873 0.857183 0 255 100
0.0448015 -0.0113101 0.858878 0 255 100
0.0445411 -0.0104598 0.860592 0 255 100
0.0441922 -0.00888849 0.860586 0 255 100
0.0441922 -0.00819017 0.860586 0 255 100
0.0439301 -0.00733189 0.862306 0 255 100
0.0439304 -0.00575748 0.8623 0 255 100
0.0435805 -0.00505777 0.8623 0 255 100
0.0447941 -0.00136793 0.852121 0 255 100
0.044361 0.0139894 0.850449 0 255 100
0.0489541 0.0252217 0.812148 0 255 100
0.0500383 0.026896 0.803107 0 255 100
0.0510985 0.0293392 0.794271 0 255 100
0.0519115 0.0311479 0.787045 0 255 100
0.0523595 0.0318307 0.784199 0 255 100
0.0526777 0.032467 0.784199 0 255 100
0.0530258 0.0330827 0.779961 0 255 100
0.0532463 0.033497 0.778557 0 255 100
0.0532466 0.0342865 0.778552 0 255 100
0.049642 -0.0369865 0.840533 0 255 100
0.0497383 -0.0362045 0.842174 0 255 100
0.0493966 -0.0351794 0.842174 0 255 100
0.0486555 -0.0305742 0.847119 0 255 100
0.0483121 -0.029371 0.847113 0 255 100
0.0483117 -0.0283402 0.84712 0 255 100
0.0472142 -0.0214201 0.852121 0 255 100
0.0466145 -0.0183447 0.853802 0 255 100
0.0461036 -0.0163306 0.857183 0 255 100
0.0443683 -0.00734652 0.864027 0 255 100
0.0441061 -0.00578051 0.865749 0 255 100
0.0446297 -0.00365838 0.862308 0 255 100
0.0504217 -0.0379129 0.842174 0 255 100
0.0481569 -0.0256909 0.850441 0 255 100
0.05052 -0.0355903 0.843816 0 255 100
0.0586185 -0.0585828 0.800139 0 255 100
0.0584016 -0.0569028 0.801625 0 255 100
0.0580764 -0.0552766 0.801625 0 255 100
0.0578583 -0.0547275 0.803113 0 255 100
0.0578583 -0.0540758 0.803113 0 255 100
0.0576394 -0.0525441 0.804605 0 255 100
0.0513471 -0.0369865 0.840533 0 255 100
0.0511053 -0.0363751 0.842169 0 255 100
0.0511051 -0.0348377 0.842174 0 255 100
0.0508626 -0.0340495 0.84381 0 255 100
0.05052 -0.0325091 0.843816 0 255 100
0.0505202 -0.031653 0.84381 0 255 100
0.0502759 -0.0303427 0.845458 0 255 100
0.0499329 -0.0286276 0.845458 0 255 100
0.0499329 -0.0279416 0.845458 0 255 100
0.0494397 -0.0258129 0.848779 0 255 100
0.0494396 -0.0252964 0.848781 0 255 100
0.0491917 -0.024656 0.850449 0 255 100
0.0483468 -0.0202498 0.853796 0 255 100
0.0471469 -0.0121573 0.857183 0 255 100
0.0461214 -0.00647009 0.864021 0 255 100
0.0461214 -0.00506787 0.864021 0 255 100
0.0550237 0.0323498 0.781368 0 255 100
0.0552412 0.0330824 0.779955 0 255 100
0.0590521 -0.0575533 0.801625 0 255 100
0.0590521 -0.0562523 0.801625 0 255 100
0.05851 -0.0534241 0.803113 0 255 100
0.0580738 -0.0513337 0.806104 0 255 100
0.057966 -0.0504218 0.8046 0 255 100
0.0520289 -0.0374983 0.840539 0 255 100
0.0520288 -0.0366458 0.840541 0 255 100
0.0517885 -0.0358628 0.842174 0 255 100
0.0518894 -0.035248 0.843816 0 255 100
0.0514467 -0.0343252 0.842176 0 255 100
0.0511053 -0.0332999 0.842169 0 255 100
0.0512047 -0.0325091 0.843816 0 255 100
0.0512049 -0.031653 0.84381 0 255 100
0.0508626 -0.0302836 0.84381 0 255 100
0.050718 -0.029371 0.847113 0 255 100
0.0506189 -0.0286276 0.845458 0 255 100
0.0503739 -0.0276528 0.84712 0 255 100
0.0501283 -0.0266739 0.848781 0 255 100
0.0501287 -0.0256406 0.848774 0 255 100
0.0495367 -0.0229308 0.850449 0 255 100
0.0490394 -0.0207695 0.853802 0 255 100
0.0490393 -0.0199035 0.853804 0 255 100
0.0490394 -0.0183447 0.853802 0 255 100
0.0483466 -0.0166126 0.853802 0 255 100
0.0484421 -0.0159513 0.855489 0 255 100
0.048095 -0.01491 0.855489 0 255 100
0.0478425 -0.0138962 0.857183 0 255 100
0.0478425 -0.0132006 0.857183 0 255 100
0.0473344 -0.00976146 0.860592 0 255 100
0.0467292 -0.0064572 0.8623 0 255 100
0.046472 -0.00576898 0.864021 0 255 100
0.046472 -0.00506787 0.864021 0 255 100
0.0466363 -0.00330191 0.860586 0 255 100
0.0478116 0.00105009 0.850447 0 255 100
0.0478744 0.0145935 0.845466 0 255 100
0.0485244 0.0166927 0.83891 0 255 100
0.0530997 0.0277705 0.800138 0 255 100
0.0537751 0.0285861 0.795733 0 255 100
0.0551045 0.0313078 0.78705 0 255 100
0.0523702 -0.0369865 0.840533 0 255 100
0.0518893 -0.0343922 0.843818 0 255 100
0.051405 -0.0314335 0.84712 0 255 100
0.0496343 -0.0214201 0.852121 0 255 100
0.0486344 -0.0135753 0.858884 0 255 100
0.0482862 -0.0120071 0.858878 0 255 100
0.0474286 -0.0061074 0.862308 0 255 100
0.0471727 -0.00541847 0.864029 0 255 100
0.0533933 -0.0363044 0.840533 0 255 100
0.0610036 -0.0575533 0.801625 0 255 100
0.0604652 -0.0555417 0.803107 0 255 100
0.0601394 -0.0532609 0.803107 0 255 100
0.0597091 -0.0510066 0.806104 0 255 100
0.0539705 -0.0369148 0.838905 0 255 100
0.0530198 -0.0320581 0.845466 0 255 100
0.0530201 -0.0310288 0.845458 0 255 100
0.0521949 -0.0273624 0.848774 0 255 100
0.0519521 -0.0253461 0.850449 0 255 100
0.051363 -0.0207286 0.852121 0 255 100
0.0507714 -0.0186911 0.853802 0 255 100
0.0502769 -0.0149395 0.857183 0 255 100
0.0502769 -0.0140701 0.857185 0 255 100
0.0485753 -0.00261398 0.864021 0 255 100
0.061329 -0.058366 0.80162 0 255 100
0.0613288 -0.0562523 0.801625 0 255 100
0.0609039 -0.0545028 0.804605 0 255 100
0.0609039 -0.0538499 0.804605 0 255 100
0.0603632 -0.0523149 0.806104 0 255 100
0.0605774 -0.0515647 0.804605 0 255 100
0.0601483 -0.05061 0.807602 0 255 100
0.0547571 -0.0378393 0.840539 0 255 100
0.0545222 -0.0370584 0.842169 0 255 100
0.0545222 -0.0363751 0.842169 0 255 100
0.0541805 -0.0356917 0.842169 0 255 100
0.0542861 -0.0347342 0.84381 0 255 100
0.0539438 -0.0333648 0.84381 0 255 100
0.0536011 -0.0313109 0.843818 0 255 100
0.0534672 -0.0307461 0.84712 0 255 100
0.0533628 -0.03 0.845466 0 255 100
0.0531236 -0.0291994 0.847119 0 255 100
0.0530201 -0.0286276 0.845458 0 255 100
0.0531238 -0.0279962 0.847113 0 255 100
0.052539 -0.0244354 0.84878 0 255 100
0.0520544 -0.0221115 0.852121 0 255 100
0.0515662 -0.0195956 0.855483 0 255 100
0.051566 -0.0183809 0.855489 0 255 100
0.0509728 -0.0144177 0.857177 0 255 100
0.0506247 -0.0128528 0.857183 0 255 100
0.049878 -0.00820648 0.8623 0 255 100
0.0495277 -0.0061074 0.862308 0 255 100
0.0551111 0.0246813 0.810632 0 255 100
0.0555607 0.0254084 0.807609 0 255 100
0.0564617 0.0279918 0.797198 0 255 100
0.0589322 0.0338128 0.778557 0 255 100
0.0552053 -0.0374005 0.842176 0 255 100
0.0548639 -0.0356917 0.842169 0 255 100
0.0542858 -0.0330227 0.843818 0 255 100
0.0540488 -0.030686 0.845466 0 255 100
0.0529873 -0.0244834 0.850447 0 255 100
0.0527459 -0.0238402 0.852121 0 255 100
0.0527458 -0.0221115 0.852121 0 255 100
0.0521571 -0.0190375 0.853802 0 255 100
0.0626299 -0.0560894 0.80162 0 255 100
0.0542611 -0.0280511 0.848774 0 255 100
0.0625363 -0.052707 0.8046 0 255 100
0.0622096 -0.0507487 0.804607 0 255 100
0.0562304 -0.0374005 0.842176 0 255 100
0.0562307 -0.0363751 0.842169 0 255 100
0.0564625 -0.0356224 0.840533 0 255 100
0.0556553 -0.0318244 0.843816 0 255 100
0.055186 -0.0286836 0.847113 0 255 100
0.0549498 -0.0273624 0.848774 0 255 100
0.0538891 -0.0211159 0.853802 0 255 100
0.0533017 -0.0168189 0.855483 0 255 100
0.0530592 -0.0156351 0.857183 0 255 100
0.052327 -0.0113552 0.8623 0 255 100
0.0633976 -0.055705 0.803112 0 255 100
0.063189 -0.0536867 0.804607 0 255 100
0.0628627 -0.052707 0.8046 0 255 100
0.0623255 -0.0501891 0.806105 0 255 100
0.0571443 -0.0374983 0.840539 0 255 100
0.0571443 -0.0366458 0.840541 0 255 100
0.056914 -0.0356917 0.842169 0 255 100
0.0566826 -0.0333648 0.84381 0 255 100
0.0558731 -0.0314335 0.84712 0 255 100
0.0559977 -0.0297702 0.843816 0 255 100
0.055294 -0.0265017 0.848779 0 255 100
0.055294 -0.0258129 0.84878 0 255 100
0.0550576 -0.0244834 0.850447 0 255 100
0.0550576 -0.0237933 0.850447 0 255 100
0.0547125 -0.0231033 0.850447 0 255 100
0.0547127 -0.0222405 0.850441 0 255 100
0.0542358 -0.0192106 0.853796 0 255 100
0.0535129 -0.014098 0.858886 0 255 100
0.0519771 -0.00575748 0.8623 0 255 100
0.05173 -0.00313983 0.864027 0 255 100
0.0579626 0.0246351 0.809117 0 255 100
0.0586189 0.0262931 0.8046 0 255 100
0.0594825 0.0283673 0.798662 0 255 100
0.0602229 0.029553 0.791367 0 255 100
0.0608523 0.0311482 0.787052 0 255 100
0.0637236 -0.0555417 0.803107 0 255 100
0.0633976 -0.0522838 0.803114 0 255 100
0.063189 -0.0507487 0.804607 0 255 100
0.0574853 -0.0366458 0.840541 0 255 100
0.0572555 -0.034496 0.842174 0 255 100
0.0566824 -0.0321668 0.843816 0 255 100
0.0564501 -0.0298284 0.845464 0 255 100
0.0562169 -0.028512 0.847118 0 255 100
0.0557479 -0.0250008 0.850441 0 255 100
0.0554026 -0.0231032 0.850447 0 255 100
0.0530267 -0.00820648 0.8623 0 255 100
0.0527817 -0.00629485 0.864027 0 255 100
0.0638421 -0.0497689 0.8046 0 255 100
0.0650268 -0.055868 0.803114 0 255 100
0.065027 -0.0548901 0.803107 0 255 100
0.0642878 -0.0501891 0.806105 0 255 100
0.0588494 -0.0359637 0.840541 0 255 100
0.0581654 -0.0334299 0.845458 0 255 100
0.0577046 -0.029601 0.848779 0 255 100
0.0568946 -0.0234945 0.852121 0 255 100
0.056783 -0.0222405 0.850441 0 255 100
0.0560781 -0.0195958 0.855491 0 255 100
0.0554939 -0.0154611 0.857177 0 255 100
0.054076 -0.00558259 0.862306 0 255 100
0.0538334 -0.00384095 0.864027 0 255 100
0.0545584 -0.000333379 0.858884 0 255 100
0.0656785 -0.0552164 0.803114 0 255 100
0.0653527 -0.05375 0.803113 0 255 100
0.0653527 -0.0530983 0.803113 0 255 100
0.064942 -0.0510066 0.806104 0 255 100
0.0647354 -0.0499551 0.807609 0 255 100
0.0646149 -0.049535 0.806105 0 255 100
0.0590789 -0.035248 0.843816 0 255 100
0.0588513 -0.0346308 0.845464 0 255 100
0.058964 -0.0338126 0.842174 0 255 100
0.0587366 -0.0328515 0.843816 0 255 100
0.0585082 -0.0322296 0.845464 0 255 100
0.0585082 -0.0315435 0.845464 0 255 100
0.0585082 -0.0308575 0.845464 0 255 100
0.0580489 -0.0282235 0.84878 0 255 100
0.0577046 -0.026846 0.84878 0 255 100
0.0573604 -0.0246075 0.848774 0 255 100
0.0568946 -0.0207286 0.852121 0 255 100
0.0566606 -0.0185177 0.853796 0 255 100
0.0561894 -0.0137222 0.857177 0 255 100
0.0557145 -0.0113326 0.860586 0 255 100
0.0545345 -0.00313983 0.864027 0 255 100
0.0598351 0.0230448 0.816745 0 255 100
0.0618647 0.0272837 0.800143 0 255 100
0.0638136 0.0318307 0.784199 0 255 100
0.064418 0.0329244 0.77996 0 255 100
0.064502 0.0337521 0.777159 0 255 100
0.0598725 -0.0359637 0.840541 0 255 100
0.0591945 -0.0334299 0.845458 0 255 100
0.0591943 -0.0322296 0.845464 0 255 100
0.0581632 -0.0246558 0.850441 0 255 100
0.058163 -0.0237933 0.850447 0 255 100
0.0576998 -0.0216354 0.853796 0 255 100
0.0571194 -0.0171661 0.855491 0 255 100
0.0554757 -0.00750677 0.8623 0 255 100
0.0552355 -0.00471735 0.864029 0 255 100
0.0603307 -0.0351794 0.842174 0 255 100
0.0673077 -0.0563567 0.803113 0 255 100
0.0671064 -0.0541763 0.804605 0 255 100
0.0607907 -0.0342209 0.843816 0 255 100
0.0605664 -0.0315435 0.845464 0 255 100
0.0603412 -0.0298868 0.847119 0 255 100
0.0602234 -0.0291423 0.845464 0 255 100
0.0597708 -0.0261573 0.84878 0 255 100
0.0589689 -0.0212473 0.852123 0 255 100
0.0589689 -0.0203829 0.852121 0 255 100
0.0587388 -0.0188643 0.853804 0 255 100
0.0585078 -0.0182074 0.855491 0 255 100
0.0583926 -0.0167857 0.853796 0 255 100
0.0581609 -0.0154305 0.855483 0 255 100
0.0676337 -0.0548901 0.803107 0 255 100
0.0674329 -0.0528705 0.804605 0 255 100
0.0669043 -0.0506796 0.806104 0 255 100
0.0670293 -0.0499546 0.807602 0 255 100
0.0616975 -0.0362045 0.842174 0 255 100
0.0614754 -0.0345633 0.843816 0 255 100
0.0611332 -0.0330224 0.84381 0 255 100
0.0611331 -0.0321668 0.843816 0 255 100
0.0606851 -0.0300584 0.847113 0 255 100
0.0601152 -0.0258129 0.848779 0 255 100
0.0598882 -0.0225857 0.850449 0 255 100
0.0588551 -0.0168189 0.855483 0 255 100
0.0586237 -0.0149395 0.857183 0 255 100
0.0571024 -0.00560492 0.865755 0 255 100
0.0569884 -0.00243872 0.864027 0 255 100
0.0629112 0.0239488 0.813681 0 255 100
0.0654798 0.0292855 0.792816 0 255 100
0.0658818 0.0301401 0.789923 0 255 100
0.0668292 0.0328652 0.778557 0 255 100
0.0679596 -0.0548901 0.803107 0 255 100
0.0618178 -0.0349056 0.843816 0 255 100
0.0618178 -0.0338785 0.843816 0 255 100
0.0615955 -0.0325726 0.845464 0 255 100
0.0613723 -0.0312616 0.847118 0 255 100
0.0610286 -0.0288557 0.847118 0 255 100
0.0608039 -0.0265017 0.848779 0 255 100
0.0601244 -0.0212892 0.853804 0 255 100
0.0583917 -0.0106132 0.858878 0 255 100
0.0574536 -0.0024436 0.865755 0 255 100
0.0695887 -0.0560309 0.803113 0 255 100
0.0692629 -0.0545642 0.803107 0 255 100
0.0690651 -0.053197 0.804605 0 255 100
0.0690652 -0.0517276 0.8046 0 255 100
0.0688667 -0.0510066 0.806104 0 255 100
0.0685396 -0.0503525 0.806104 0 255 100
0.0685397 -0.0495346 0.806099 0 255 100
0.0624036 -0.0276526 0.847113 0 255 100
0.0624036 -0.0262778 0.847113 0 255 100
0.061837 -0.024952 0.848781 0 255 100
0.0699146 -0.0552159 0.803107 0 255 100
0.0691937 -0.0510066 0.806104 0 255 100
0.0691938 -0.0501887 0.806098 0 255 100
0.0639651 -0.0352814 0.840533 0 255 100
0.0639649 -0.034429 0.840539 0 255 100
0.0635296 -0.0335362 0.843816 0 255 100
0.0635297 -0.0323377 0.84381 0 255 100
0.0633108 -0.0306858 0.845458 0 255 100
0.063091 -0.029371 0.847113 0 255 100
0.0628703 -0.0277068 0.848774 0 255 100
0.0627473 -0.0269652 0.847113 0 255 100
0.0625259 -0.0263293 0.848774 0 255 100
0.0620804 -0.0226302 0.852123 0 255 100
0.0620804 -0.0219387 0.852123 0 255 100
0.0618565 -0.0195571 0.853804 0 255 100
0.0615101 -0.0173054 0.853802 0 255 100
0.0612845 -0.0157778 0.855491 0 255 100
0.0606025 -0.0102852 0.860594 0 255 100
0.0603735 -0.00873133 0.862306 0 255 100
0.0600236 -0.00558259 0.862306 0 255 100
0.0594423 -0.00313983 0.864027 0 255 100
0.0605904 1.5032e-05 0.855489 0 255 100
0.0692225 0.0327852 0.784199 0 255 100
0.0694812 0.0335573 0.77996 0 255 100
0.0702405 -0.0545642 0.803107 0 255 100
0.0700444 -0.053197 0.804605 0 255 100
0.0640895 -0.0329582 0.842169 0 255 100
0.0634344 -0.0279965 0.84712 0 255 100
0.0632147 -0.0263293 0.848774 0 255 100
0.0629938 -0.0246558 0.850441 0 255 100
0.0627721 -0.0222843 0.852115 0 255 100
0.0622031 -0.0185177 0.853796 0 255 100
0.0618764 -0.0154918 0.858878 0 255 100
0.0715438 -0.0545642 0.803107 0 255 100
0.0710238 -0.0520545 0.804607 0 255 100
0.0708291 -0.0495346 0.806099 0 255 100
0.0653689 -0.0324009 0.845458 0 255 100
0.0640288 -0.0227582 0.850447 0 255 100
0.0639351 -0.0216354 0.853796 0 255 100
0.0623484 -0.0108089 0.860592 0 255 100
0.0623486 -0.00993597 0.860586 0 255 100
0.0718696 -0.0539125 0.803107 0 255 100
0.0714831 -0.0514973 0.806105 0 255 100
0.0714831 -0.0506796 0.806104 0 255 100
0.0714832 -0.0495346 0.806099 0 255 100
0.0712888 -0.0486444 0.807609 0 255 100
0.0710937 -0.0477505 0.809119 0 255 100
0.065926 -0.0333651 0.843818 0 255 100
0.065926 -0.0326804 0.843818 0 255 100
0.0657117 -0.0320581 0.845466 0 255 100
0.0657118 -0.0312005 0.845464 0 255 100
0.0654966 -0.0304024 0.84712 0 255 100
0.0654968 -0.029371 0.847113 0 255 100
0.0651529 -0.0273091 0.84712 0 255 100
0.0649363 -0.0266739 0.848781 0 255 100
0.0649365 -0.0239187 0.848774 0 255 100
0.0647189 -0.0227582 0.850447 0 255 100
0.0645005 -0.0219387 0.852123 0 255 100
0.0642814 -0.0197303 0.853802 0 255 100
0.0640615 -0.0185543 0.855483 0 255 100
0.0640613 -0.0173396 0.855489 0 255 100
0.0636186 -0.0135753 0.858884 0 255 100
0.0634926 -0.012505 0.857183 0 255 100
0.0632701 -0.0114844 0.858884 0 255 100
0.0630467 -0.0108089 0.860592 0 255 100
0.0624728 -0.00715691 0.8623 0 255 100
0.06202 -0.0024436 0.865755 0 255 100
0.0672521 0.0210966 0.818296 0 255 100
0.0669678 0.0218847 0.822963 0 255 100
0.0678634 0.0242787 0.813674 0 255 100
0.0717678 0.032467 0.784199 0 255 100
0.0723848 0.0343828 0.777159 0 255 100
0.0725213 -0.0545642 0.803107 0 255 100
0.0720032 -0.0523805 0.8046 0 255 100
0.0716166 -0.0473333 0.807602 0 255 100
0.066055 -0.0293137 0.845458 0 255 100
0.0656251 -0.0266739 0.848781 0 255 100
0.0656251 -0.024952 0.848781 0 255 100
0.0646277 -0.0188643 0.853804 0 255 100
0.0672956 -0.0323377 0.84381 0 255 100
0.0734988 -0.0527724 0.803112 0 255 100
0.0731184 -0.0506796 0.806104 0 255 100
0.0677699 -0.0334302 0.845466 0 255 100
0.0677701 -0.0324009 0.845458 0 255 100
0.0674271 -0.0306858 0.845458 0 255 100
0.0670026 -0.0254685 0.848779 0 255 100
0.0667891 -0.024311 0.850449 0 255 100
0.0666582 -0.0235746 0.848781 0 255 100
0.0654498 -0.0154305 0.855483 0 255 100
0.0650125 -0.0107875 0.858884 0 255 100
0.0647926 -0.00941229 0.860592 0 255 100
0.0647926 -0.00801564 0.860592 0 255 100
0.0645718 -0.00663217 0.862306 0 255 100
0.0741505 -0.0539125 0.803108 0 255 100
0.0734455 -0.0495346 0.806098 0 255 100
0.0733917 -0.0487353 0.809119 0 255 100
0.0732548 -0.0478251 0.807608 0 255 100
0.0732548 -0.0470061 0.807609 0 255 100
0.0732548 -0.0463507 0.807609 0 255 100
0.0683225 -0.0319956 0.843818 0 255 100
0.0677699 -0.030343 0.845466 0 255 100
0.0677699 -0.029657 0.845466 0 255 100
0.067347 -0.0258129 0.84878 0 255 100
0.0671344 -0.0246558 0.850441 0 255 100
0.0671342 -0.0227582 0.850447 0 255 100
0.0669207 -0.0200372 0.852121 0 255 100
0.0667062 -0.0193839 0.853802 0 255 100
0.066491 -0.0176867 0.855489 0 255 100
0.066491 -0.0169925 0.855489 0 255 100
0.066275 -0.0154611 0.857177 0 255 100
0.0656213 -0.0111803 0.862306 0 255 100
0.0653609 -0.00869668 0.858884 0 255 100
0.0652715 -0.00768175 0.862306 0 255 100
0.0650512 -0.00594429 0.864027 0 255 100
0.0650512 -0.00524318 0.864027 0 255 100
0.066099 0.0136444 0.850449 0 255 100
0.0747731 0.0343211 0.775766 0 255 100
0.0740996 -0.0500255 0.806104 0 255 100
0.0684559 -0.030343 0.845466 0 255 100
0.0680357 -0.0273627 0.848781 0 255 100
0.0680357 -0.0254685 0.84878 0 255 100
0.0673992 -0.0209426 0.853796 0 255 100
0.0656215 -0.00715691 0.8623 0 255 100
0.0692147 -0.0326168 0.842176 0 255 100
0.0755941 -0.0525441 0.804605 0 255 100
0.0754078 -0.0514973 0.806105 0 255 100
0.0748931 -0.0481528 0.807607 0 255 100
0.0698281 -0.0296569 0.845466 0 255 100
0.069621 -0.0288557 0.847118 0 255 100
0.0688595 -0.0220681 0.850447 0 255 100
0.0688595 -0.021378 0.850447 0 255 100
0.0686493 -0.0203829 0.852121 0 255 100
0.0684383 -0.0197303 0.853802 0 255 100
0.0674518 -0.0107875 0.858884 0 255 100
0.0670208 -0.00873133 0.862306 0 255 100
0.0670208 -0.00593245 0.862306 0 255 100
0.0759206 -0.0517276 0.8046 0 255 100
0.0753614 -0.0456166 0.809117 0 255 100
0.0750331 -0.04496 0.809117 0 255 100
0.0703767 -0.0311397 0.843816 0 255 100
0.0703084 -0.028512 0.847119 0 255 100
0.0697577 -0.0263293 0.848774 0 255 100
0.0697576 -0.0247798 0.848779 0 255 100
0.0697576 -0.0227136 0.848779 0 255 100
0.0695496 -0.0220681 0.850447 0 255 100
0.0693407 -0.0200372 0.852121 0 255 100
0.0691311 -0.0186911 0.853802 0 255 100
0.0687095 -0.0151133 0.857177 0 255 100
0.0684972 -0.0139237 0.858884 0 255 100
0.067935 -0.00871397 0.860592 0 255 100
0.067935 -0.00801564 0.860592 0 255 100
0.0675051 -0.00524318 0.864027 0 255 100
0.0675053 -0.0040162 0.864021 0 255 100
0.0731453 0.0239488 0.813681 0 255 100
0.0735293 0.0248456 0.810627 0 255 100
0.0754061 0.0289087 0.795726 0 255 100
0.0763188 0.0310449 0.788484 0 255 100
0.0763605 0.0317291 0.785623 0 255 100
0.0772151 0.0336179 0.781368 0 255 100
0.0775691 0.0342867 0.778558 0 255 100
0.0758761 -0.0481528 0.807608 0 255 100
0.0760619 -0.047082 0.806104 0 255 100
0.0756897 -0.04496 0.809117 0 255 100
0.0709958 -0.0305742 0.847119 0 255 100
0.0704463 -0.0266739 0.848781 0 255 100
0.0680705 -0.0064572 0.8623 0 255 100
0.0778792 -0.0528705 0.804605 0 255 100
0.0775145 -0.0501188 0.807607 0 255 100
0.0722293 -0.0287993 0.845464 0 255 100
0.0714151 -0.022803 0.852121 0 255 100
0.0712748 -0.0220681 0.850447 0 255 100
0.0708631 -0.0207695 0.853802 0 255 100
0.0708631 -0.0190375 0.853802 0 255 100
0.0706561 -0.0166455 0.855489 0 255 100
0.0696085 -0.00769708 0.864027 0 255 100
0.0694699 -0.00575748 0.8623 0 255 100
0.0778421 -0.0497911 0.807608 0 255 100
0.0780242 -0.0490443 0.806104 0 255 100
0.0778421 -0.0481528 0.807608 0 255 100
0.0776972 -0.0467549 0.806104 0 255 100
0.0775144 -0.0460231 0.807609 0 255 100
0.0773311 -0.0452883 0.809117 0 255 100
0.0774759 -0.0447153 0.810632 0 255 100
0.0723706 -0.0278246 0.847118 0 255 100
0.0725723 -0.0270842 0.845464 0 255 100
0.0723706 -0.0261061 0.847118 0 255 100
0.0721682 -0.0244354 0.848779 0 255 100
0.071965 -0.0212053 0.850441 0 255 100
0.0717608 -0.0200372 0.852121 0 255 100
0.0713503 -0.0169925 0.855489 0 255 100
0.0713504 -0.0157776 0.855483 0 255 100
0.0713504 -0.0150834 0.855483 0 255 100
0.0709365 -0.0139237 0.858884 0 255 100
0.0709365 -0.0132268 0.858884 0 255 100
0.0709366 -0.0120071 0.858878 0 255 100
0.0705194 -0.00838147 0.862306 0 255 100
0.0703096 -0.00594429 0.864027 0 255 100
0.0700989 -0.00525367 0.865755 0 255 100
0.0716198 0.0131268 0.850447 0 255 100
0.079054 0.0314672 0.787045 0 255 100
0.0797803 0.0331811 0.778557 0 255 100
0.0738394 0.0801635 0.821394 0 255 100
0.073058 -0.0278246 0.847118 0 255 100
0.0728569 -0.0251242 0.848779 0 255 100
0.0725349 -0.0132006 0.857183 0 255 100
0.0742344 -0.0271904 0.84878 0 255 100
0.0740352 -0.0241384 0.850447 0 255 100
0.0740353 -0.0229306 0.850441 0 255 100
0.0732881 -0.0157465 0.853796 0 255 100
0.0730273 -0.0132268 0.858884 0 255 100
0.072125 -0.00749191 0.860593 0 255 100
0.0803136 -0.0505162 0.806105 0 255 100
0.0801359 -0.048644 0.807602 0 255 100
0.0799574 -0.0480784 0.809112 0 255 100
0.0799573 -0.047258 0.809117 0 255 100
0.0799574 -0.0457804 0.809112 0 255 100
0.0794492 -0.0438932 0.810634 0 255 100
0.0795984 -0.0426571 0.812148 0 255 100
0.0747765 -0.0274809 0.847118 0 255 100
0.0747253 -0.0251735 0.850447 0 255 100
0.0745787 -0.0232302 0.848781 0 255 100
0.0743802 -0.0220681 0.850447 0 255 100
0.074181 -0.0198642 0.852115 0 255 100
0.0741809 -0.019 0.852121 0 255 100
0.074181 -0.0181356 0.852115 0 255 100
0.07378 -0.0175131 0.855483 0 255 100
0.0739809 -0.0167857 0.853796 0 255 100
0.07378 -0.0150834 0.855483 0 255 100
0.0733759 -0.0113101 0.858878 0 255 100
0.0731726 -0.0102851 0.860586 0 255 100
0.0731726 -0.00958681 0.860586 0 255 100
0.0738352 0.0128069 0.852121 0 255 100
0.0814373 0.0318447 0.788486 0 255 100
0.0826232 0.0339706 0.778552 0 255 100
0.0802856 -0.0454525 0.809119 0 255 100
0.0750703 -0.0224132 0.850447 0 255 100
0.0748724 -0.0217658 0.852121 0 255 100
0.0746736 -0.0193839 0.853802 0 255 100
0.0744742 -0.0175131 0.855483 0 255 100
0.0745692 -0.00574604 0.860586 0 255 100
0.0821018 -0.0481528 0.807608 0 255 100
0.0815987 -0.0477505 0.809119 0 255 100
0.0814226 -0.0438932 0.810634 0 255 100
0.0766451 -0.0235743 0.848774 0 255 100
0.0760128 -0.0151133 0.857177 0 255 100
0.0752676 -0.00888849 0.860586 0 255 100
0.0824295 -0.0479887 0.807602 0 255 100
0.0822553 -0.0461091 0.809119 0 255 100
0.0817515 -0.0432354 0.810634 0 255 100
0.0815754 -0.0410099 0.812155 0 255 100
0.0771407 -0.0236207 0.850441 0 255 100
0.0769894 -0.0228856 0.848774 0 255 100
0.0769467 -0.0217658 0.852121 0 255 100
0.0769467 -0.0209015 0.852123 0 255 100
0.0764058 -0.0181713 0.853796 0 255 100
0.0766011 -0.0167527 0.852115 0 255 100
0.0763606 -0.0144177 0.857177 0 255 100
0.0761635 -0.0123556 0.858886 0 255 100
0.0761635 -0.0116587 0.858886 0 255 100
0.0761635 -0.0109618 0.858886 0 255 100
0.0759659 -0.00888849 0.860586 0 255 100
0.0761635 -0.00765126 0.858884 0 255 100
0.0769467 0.0124611 0.852121 0 255 100
0.0831372 0.0283675 0.798669 0 255 100
0.0838148 0.0304114 0.792818 0 255 100
0.0843165 0.0316847 0.788484 0 255 100
0.0776782 -0.0235743 0.848774 0 255 100
0.0767084 -0.0126788 0.857177 0 255 100
0.0788306 -0.0181713 0.853796 0 255 100
0.0784472 -0.0154612 0.857185 0 255 100
0.0784472 -0.0147657 0.857185 0 255 100
0.0782921 -0.0140423 0.855491 0 255 100
0.0780608 -0.0116819 0.860593 0 255 100
0.0843955 -0.0468421 0.807607 0 255 100
0.0842115 -0.0426575 0.812155 0 255 100
0.0837095 -0.0392712 0.81368 0 255 100
0.0789864 -0.0175131 0.855483 0 255 100
0.0791769 -0.0164395 0.853804 0 255 100
0.0791428 -0.0144177 0.857177 0 255 100
0.078795 -0.0112877 0.857177 0 255 100
0.0791428 0.0120134 0.857177 0 255 100
0.0795234 0.0128321 0.853802 0 255 100
0.0871979 0.0320476 0.785617 0 255 100
0.0833288 0.079982 0.822956 0 255 100
0.0798698 -0.0195571 0.853804 0 255 100
0.0798698 -0.0178251 0.853804 0 255 100
0.0794906 -0.0158089 0.857177 0 255 100
0.0794906 -0.0144177 0.857177 0 255 100
0.0794906 -0.0126788 0.857177 0 255 100
0.0792997 -0.0116587 0.858886 0 255 100
0.0807218 -0.0156042 0.855489 0 255 100
0.0839525 -0.0558829 0.832459 0 255 100
0.085859 -0.0418336 0.812153 0 255 100
0.0810689 -0.0156042 0.855489 0 255 100
0.0808816 -0.0147657 0.857185 0 255 100
0.0808816 -0.0140701 0.857185 0 255 100
0.0812294 0.011144 0.857183 0 255 100
0.0828823 -0.0596104 0.842176 0 255 100
0.0844656 -0.0542586 0.830859 0 255 100
0.0868512 -0.04496 0.809117 0 255 100
0.086518 -0.0438107 0.812153 0 255 100
0.0866807 -0.0409219 0.81368 0 255 100
0.0860136 -0.0349456 0.816745 0 255 100
0.0819016 0.0111884 0.860592 0 255 100
0.0821102 0.0119897 0.855483 0 255 100
0.0826411 0.0128321 0.853802 0 255 100
0.089911 0.0305093 0.787045 0 255 100
0.0902304 0.0327445 0.787045 0 255 100
0.0863282 -0.0521041 0.826097 0 255 100
0.0886583 -0.0366572 0.810627 0 255 100
0.0847317 0.0107114 0.850447 0 255 100
0.0883412 -0.0548275 0.829267 0 255 100
0.0883412 -0.0531452 0.829267 0 255 100
0.0883412 -0.0561733 0.829267 0 255 100
0.0885108 -0.0522359 0.830859 0 255 100
0.0885135 -0.0498989 0.834055 0 255 100
0.0867899 0.0101409 0.860592 0 255 100
0.0869661 0.0108177 0.858884 0 255 100
0.0873166 0.0114691 0.855489 0 255 100
0.0881765 -0.0577357 0.837287 0 255 100
0.0885134 -0.0568364 0.834061 0 255 100
0.0888479 -0.0554385 0.830861 0 255 100
0.0890141 -0.0531452 0.829267 0 255 100
0.0888479 -0.0515618 0.830859 0 255 100
0.0891903 -0.0498989 0.834055 0 255 100
0.0871363 0.00965544 0.864021 0 255 100
0.0874882 0.01049 0.860592 0 255 100
0.0878374 0.00965544 0.864021 0 255 100
0.0883644 0.00897224 0.865749 0 255 100
0.0906964 -0.0556683 0.829262 0 255 100
0.0908705 -0.0527413 0.830854 0 255 100
0.0906964 -0.0519673 0.829262 0 255 100
0.0907075 -0.0501411 0.832459 0 255 100
0.0905439 -0.049561 0.834063 0 255 100
0.0907186 -0.0476219 0.835666 0 255 100
0.0912076 -0.0554385 0.830861 0 255 100
0.0913693 -0.0546594 0.829269 0 255 100
0.0913693 -0.0538182 0.829267 0 255 100
0.091383 -0.0514917 0.832451 0 255 100
0.0912206 -0.0505757 0.834055 0 255 100
0.0910452 -0.0494656 0.832459 0 255 100
0.0912338 -0.0470346 0.837282 0 255 100
0.0933039 -0.0349459 0.816752 0 255 100
0.0897694 0.00844542 0.865755 0 255 100
0.0899408 0.00965544 0.864021 0 255 100
0.0904508 0.0111662 0.858884 0 255 100
0.0903013 0.00899022 0.867484 0 255 100
0.0908353 0.007774 0.869232 0 255 100
0.0930515 -0.0543225 0.829262 0 255 100
0.0930516 -0.0526402 0.829262 0 255 100
0.0930516 -0.0519673 0.829262 0 255 100
0.092753 -0.0572852 0.835671 0 255 100
0.0929324 -0.0568861 0.837282 0 255 100
0.0935673 -0.0539214 0.830859 0 255 100
0.0935673 -0.0517304 0.830861 0 255 100
0.0934095 -0.0494656 0.832459 0 255 100
0.0934095 -0.0479457 0.832457 0 255 100
0.093251 -0.0468533 0.834055 0 255 100
0.0932721 -0.0460159 0.837289 0 255 100
0.0932721 -0.0449968 0.837289 0 255 100
0.0932721 -0.0439772 0.837282 0 255 100
0.0915707 0.00659256 0.876264 0 255 100
0.0919097 0.00727415 0.872731 0 255 100
0.0920782 0.00814302 0.870981 0 255 100
0.0922282 0.00897224 0.865749 0 255 100
0.0952528 -0.0554385 0.830861 0 255 100
0.0952528 -0.0535844 0.830859 0 255 100
0.0950982 -0.049803 0.832451 0 255 100
0.094943 -0.0483765 0.834061 0 255 100
0.0951263 -0.0469438 0.835665 0 255 100
0.0949706 -0.0443173 0.837289 0 255 100
0.0936802 0.00692013 0.872739 0 255 100
0.0943358 0.00844542 0.865755 0 255 100
0.0935191 -0.0607662 0.848774 0 255 100
0.0944482 -0.0577934 0.835666 0 255 100
0.0952814 -0.056498 0.834061 0 255 100
0.095436 -0.0557139 0.832457 0 255 100
0.0957737 -0.0540252 0.832457 0 255 100
0.0955899 -0.0532473 0.830859 0 255 100
0.0954654 -0.0472833 0.835673 0 255 100
0.0953395 -0.0414202 0.840541 0 255 100
0.0953394 -0.0407381 0.840541 0 255 100
0.0943883 0.00727416 0.872731 0 255 100
0.102089 0.0260635 0.807602 0 255 100
0.0972753 -0.0520671 0.830854 0 255 100
0.0969734 -0.0480381 0.834061 0 255 100
0.0971606 -0.0462657 0.835666 0 255 100
0.107332 0.0331422 0.781363 0 255 100
0.0942584 -0.062982 0.855483 0 255 100
0.0971607 -0.0566071 0.835671 0 255 100
0.0976125 -0.0552699 0.830859 0 255 100
0.0976125 -0.0512246 0.830859 0 255 100
0.0974624 -0.0506477 0.832457 0 255 100
0.0974625 -0.0499722 0.832457 0 255 100
0.0976502 -0.0476997 0.834061 0 255 100
0.0976883 -0.0458459 0.837287 0 255 100
0.0973856 -0.0402265 0.840539 0 255 100
0.0972334 -0.0372295 0.842174 0 255 100
0.0967946 -0.00507805 0.865757 0 255 100
0.0990039 -0.0492226 0.834063 0 255 100
0.099195 -0.0477917 0.835671 0 255 100
0.0988558 -0.0466047 0.835666 0 255 100
0.0986423 -0.0336017 0.845464 0 255 100
0.0940343 -0.0669079 0.872737 0 255 100
0.0989609 -0.0559441 0.830859 0 255 100
0.0996351 -0.0532473 0.830859 0 255 100
0.0994889 -0.0525049 0.832451 0 255 100
0.0993868 -0.0444871 0.837287 0 255 100
0.0992835 -0.0392797 0.842174 0 255 100
0.0994318 -0.0385214 0.840539 0 255 100
0.0992835 -0.0372295 0.842174 0 255 100
0.0992835 -0.0362045 0.842174 0 255 100
0.0993283 -0.0322296 0.845464 0 255 100
0.099179 -0.0316053 0.847118 0 255 100
0.0990106 -0.0137769 0.860593 0 255 100
0.100502 -0.0552074 0.832459 0 255 100
0.100357 -0.0185912 0.857185 0 255 100
0.101178 -0.0530119 0.832457 0 255 100
0.101034 -0.0488837 0.834055 0 255 100
0.101137 -0.0376685 0.840533 0 255 100
0.100992 -0.0368878 0.842174 0 255 100
0.111165 0.0791644 0.821401 0 255 100
0.102669 -0.0547638 0.830854 0 255 100
0.102529 -0.0514921 0.832459 0 255 100
0.102784 -0.0463556 0.837289 0 255 100
0.102842 -0.0407378 0.840533 0 255 100
0.1027 -0.0392797 0.842174 0 255 100
0.102842 -0.0371572 0.840539 0 255 100
0.10296 -0.0316053 0.847118 0 255 100
0.102817 -0.0282235 0.84878 0 255 100
0.113812 0.0799521 0.826097 0 255 100
0.104143 -0.0453361 0.837282 0 255 100
0.104206 -0.039715 0.840541 0 255 100
0.104354 -0.0547638 0.830854 0 255 100
0.104547 -0.0403971 0.840541 0 255 100
0.104612 -0.0378154 0.84381 0 255 100
0.104612 -0.0371307 0.84381 0 255 100
0.104612 -0.0361036 0.84381 0 255 100
0.104474 -0.0327442 0.845466 0 255 100
0.104605 -0.0217658 0.852121 0 255 100
0.104465 -0.0200767 0.853802 0 255 100
0.105911 -0.0400557 0.840533 0 255 100
0.118338 0.0285898 0.791367 0 255 100
0.12041 0.080105 0.827676 0 255 100
0.103709 -0.0605411 0.850449 0 255 100
0.105025 -0.0571669 0.83891 0 255 100
0.105906 -0.0550384 0.832457 0 255 100
0.106181 -0.0456762 0.837289 0 255 100
0.118613 0.0797998 0.824523 0 255 100
0.105433 -0.053114 0.834061 0 255 100
0.105976 -0.0498261 0.835671 0 255 100
0.105841 -0.0443169 0.837282 0 255 100
0.105911 -0.0429547 0.840539 0 255 100
0.105911 -0.0407378 0.840533 0 255 100
0.105911 -0.039715 0.840541 0 255 100
0.10564 -0.0350769 0.843818 0 255 100
0.118059 0.0794334 0.827676 0 255 100
0.104757 -0.054637 0.834063 0 255 100
0.10462 -0.0462661 0.835673 0 255 100
0.104685 -0.0416803 0.838912 0 255 100
0.103603 -0.0571158 0.835673 0 255 100
0.104217 -0.0555451 0.832459 0 255 100
0.104155 -0.05365 0.829269 0 255 100
0.104217 -0.0531809 0.832459 0 255 100
0.104418 -0.0527756 0.834061 0 255 100
0.104217 -0.0509854 0.832457 0 255 100
0.104217 -0.0491279 0.832459 0 255 100
0.104281 -0.0486395 0.835673 0 255 100
0.10462 -0.0471136 0.835671 0 255 100
0.104482 -0.0465253 0.837287 0 255 100
0.104482 -0.0456762 0.837289 0 255 100
0.104482 -0.0438077 0.837287 0 255 100
0.104547 -0.043125 0.840533 0 255 100
0.104547 -0.0414198 0.840533 0 255 100
0.116267 0.0789126 0.829262 0 255 100
0.116941 0.0803022 0.824529 0 255 100
0.10388 -0.0538564 0.832459 0 255 100
0.10368 -0.0530788 0.830861 0 255 100
0.104017 -0.0525731 0.830859 0 255 100
0.104017 -0.0520675 0.830861 0 255 100
0.104017 -0.0515617 0.830859 0 255 100
0.10408 -0.0500684 0.834061 0 255 100
0.10408 -0.0485458 0.834063 0 255 100
0.103942 -0.0479614 0.835673 0 255 100
0.10408 -0.0468538 0.834063 0 255 100
0.104143 -0.0463556 0.837289 0 255 100
0.104143 -0.0449968 0.837289 0 255 100
0.104345 -0.0440629 0.838912 0 255 100
0.104345 -0.0427014 0.838912 0 255 100
0.104206 -0.0410792 0.840541 0 255 100
0.104474 -0.0382326 0.845466 0 255 100
0.104409 -0.0374005 0.842176 0 255 100
0.104334 -0.0312616 0.847118 0 255 100
0.104539 -0.0301174 0.848774 0 255 100
0.104399 -0.0255186 0.850447 0 255 100
0.104605 -0.0248774 0.852121 0 255 100
0.104465 -0.0225016 0.853802 0 255 100
0.104605 -0.0217658 0.852121 0 255 100
0.105018 -0.020984 0.855483 0 255 100
0.114905 0.0291779 0.794266 0 255 100
0.115937 0.0791308 0.824523 0 255 100
0.116609 0.0801785 0.819844 0 255 100
0.103542 -0.0530119 0.832457 0 255 100
0.103725 -0.0384252 0.842169 0 255 100
0.103403 -0.0500684 0.834061 0 255 100
0.102866 -0.0530119 0.832457 0 255 100
0.103065 -0.0522682 0.834063 0 255 100
0.103065 -0.0515914 0.834063 0 255 100
0.103204 -0.0494652 0.832451 0 255 100
0.103263 -0.0489781 0.835665 0 255 100
0.103264 -0.0469442 0.835673 0 255 100
0.103124 -0.0448268 0.837287 0 255 100
0.103524 -0.0431249 0.840533 0 255 100
0.103585 -0.0381581 0.843818 0 255 100
0.103445 -0.0372032 0.845458 0 255 100
0.103585 -0.0350769 0.843818 0 255 100
0.103647 -0.0343548 0.847119 0 255 100
0.103243 -0.0328515 0.843816 0 255 100
0.103303 -0.0321209 0.84712 0 255 100
0.103364 -0.028279 0.850447 0 255 100
0.103364 -0.0248285 0.850447 0 255 100
0.115037 0.0794334 0.827676 0 255 100
0.0996151 -0.0619922 0.853802 0 255 100
0.101907 -0.0571158 0.835673 0 255 100
0.102246 -0.0567768 0.835673 0 255 100
0.102472 -0.0543225 0.829262 0 255 100
0.102529 -0.0541937 0.832451 0 255 100
0.102669 -0.0535844 0.830859 0 255 100
0.102332 -0.0529102 0.830859 0 255 100
0.102866 -0.0525049 0.832451 0 255 100
0.102866 -0.0508166 0.832459 0 255 100
0.102726 -0.0498994 0.834063 0 255 100
0.102388 -0.0492226 0.834063 0 255 100
0.103145 -0.0484349 0.829267 0 255 100
0.102726 -0.047869 0.834063 0 255 100
0.102726 -0.0455002 0.834063 0 255 100
0.103384 -0.0445756 0.842169 0 255 100
0.102842 -0.0432957 0.840539 0 255 100
0.103042 -0.0418425 0.842176 0 255 100
0.102643 -0.0409995 0.838912 0 255 100
0.102983 -0.0404889 0.83891 0 255 100
0.1027 -0.0377418 0.842169 0 255 100
0.102901 -0.036275 0.843816 0 255 100
0.1027 -0.03535 0.842169 0 255 100
0.102759 -0.0339447 0.845464 0 255 100
0.102759 -0.0332587 0.845464 0 255 100
0.103162 -0.0313229 0.848779 0 255 100
0.10296 -0.0305742 0.847119 0 255 100
0.10296 -0.029715 0.84712 0 255 100
0.102817 -0.0289123 0.84878 0 255 100
0.103079 -0.0231944 0.853802 0 255 100
0.103222 -0.0224573 0.852121 0 255 100
0.114933 0.0791308 0.824523 0 255 100
0.101995 -0.0544272 0.830861 0 255 100
0.101995 -0.0520675 0.830861 0 255 100
0.102191 -0.051154 0.832451 0 255 100
0.102388 -0.0500684 0.834061 0 255 100
0.102246 -0.0496562 0.835665 0 255 100
0.102191 -0.0486212 0.832457 0 255 100
0.102246 -0.0466047 0.835665 0 255 100
0.102246 -0.0460965 0.835671 0 255 100
0.102302 -0.0449137 0.83891 0 255 100
0.102246 -0.0438927 0.835673 0 255 100
0.102359 -0.0416715 0.842174 0 255 100
0.102501 -0.0407378 0.840533 0 255 100
0.102359 -0.038938 0.842174 0 255 100
0.102359 -0.0380839 0.842176 0 255 100
0.102359 -0.0368878 0.842174 0 255 100
0.102216 -0.0361036 0.84381 0 255 100
0.102359 -0.03535 0.842169 0 255 100
0.102415 -0.034802 0.845458 0 255 100
0.102616 -0.031949 0.847119 0 255 100
0.102876 -0.0248774 0.852121 0 255 100
0.112764 0.0291245 0.792811 0 255 100
0.113766 0.0316714 0.784194 0 255 100
0.102136 -0.050958 0.829262 0 255 100
0.101962 -0.0457647 0.838912 0 255 100
0.101373 -0.0512525 0.834055 0 255 100
0.113379 0.0796481 0.822956 0 255 100
0.10084 -0.0552074 0.832459 0 255 100
0.101515 -0.0538564 0.832459 0 255 100
0.101373 -0.0505762 0.834063 0 255 100
0.101874 -0.0396986 0.843816 0 255 100
0.101334 -0.0384252 0.842169 0 255 100
0.101531 -0.0373021 0.843816 0 255 100
0.101675 -0.0358628 0.842174 0 255 100
0.101334 -0.0348377 0.842174 0 255 100
0.101984 -0.0320745 0.850447 0 255 100
0.101639 -0.028279 0.850447 0 255 100
0.112711 0.0789803 0.822956 0 255 100
0.100309 -0.0559441 0.830859 0 255 100
0.100646 -0.0552699 0.830859 0 255 100
0.100646 -0.0549328 0.830859 0 255 100
0.10084 -0.0545319 0.832459 0 255 100
0.100646 -0.053753 0.830861 0 255 100
0.100983 -0.0529101 0.830859 0 255 100
0.100696 -0.0522682 0.834063 0 255 100
0.10084 -0.0514921 0.832459 0 255 100
0.100502 -0.0508166 0.832459 0 255 100
0.101034 -0.0500684 0.834061 0 255 100
0.100696 -0.049561 0.834063 0 255 100
0.10089 -0.0493176 0.835673 0 255 100
0.101281 -0.0484872 0.838905 0 255 100
0.10089 -0.0476219 0.835665 0 255 100
0.100696 -0.0471917 0.834055 0 255 100
0.101085 -0.0470346 0.837282 0 255 100
0.101425 -0.0460155 0.837282 0 255 100
0.100941 -0.045254 0.83891 0 255 100
0.10089 -0.0444012 0.835671 0 255 100
0.100941 -0.0440629 0.838912 0 255 100
0.101373 -0.0431314 0.834063 0 255 100
0.101334 -0.0420132 0.842174 0 255 100
0.100796 -0.0410792 0.840541 0 255 100
0.10065 -0.0396214 0.842174 0 255 100
0.101334 -0.038938 0.842174 0 255 100
0.101137 -0.0380099 0.840541 0 255 100
0.10144 -0.0371772 0.848779 0 255 100
0.100992 -0.0360334 0.842169 0 255 100
0.100846 -0.0354189 0.84381 0 255 100
0.101043 -0.0341163 0.845466 0 255 100
0.101043 -0.0336017 0.845464 0 255 100
0.101334 -0.0329585 0.842176 0 255 100
0.100846 -0.0323377 0.84381 0 255 100
0.101189 -0.031482 0.843816 0 255 100
0.101043 -0.0308575 0.845464 0 255 100
0.100897 -0.0291994 0.847119 0 255 100
0.101347 -0.0280441 0.853802 0 255 100
0.100949 -0.0272438 0.850447 0 255 100
0.100949 -0.0268988 0.850447 0 255 100
0.101294 -0.0265537 0.850447 0 255 100
0.101148 -0.0262603 0.852121 0 255 100
0.101347 -0.0256192 0.853802 0 255 100
0.101095 -0.0249518 0.848774 0 255 100
0.101748 -0.0239818 0.857183 0 255 100
0.101657 -0.019052 0.8623 0 255 100
0.101804 -0.016221 0.860594 0 255 100
0.112015 0.079266 0.827682 0 255 100
0.112471 0.0794499 0.826102 0 255 100
0.100309 -0.0544272 0.830861 0 255 100
0.100309 -0.0535843 0.830859 0 255 100
0.100309 -0.0529102 0.830859 0 255 100
0.100696 -0.0522682 0.834063 0 255 100
0.100309 -0.0513933 0.830861 0 255 100
0.100357 -0.0492226 0.834063 0 255 100
0.100019 -0.0453309 0.834061 0 255 100
0.100406 -0.0441474 0.837287 0 255 100
0.1006 -0.0406588 0.838905 0 255 100
0.100309 -0.0392797 0.842174 0 255 100
0.100309 -0.0384252 0.842169 0 255 100
0.100504 -0.0376445 0.843816 0 255 100
0.100309 -0.0368879 0.842174 0 255 100
0.100504 -0.0349056 0.843816 0 255 100
0.100357 -0.0342877 0.845464 0 255 100
0.100357 -0.0329156 0.845464 0 255 100
0.100751 -0.0302897 0.84878 0 255 100
0.100802 -0.0272975 0.852121 0 255 100
0.111539 0.0310351 0.784194 0 255 100
0.0996351 -0.0520675 0.830861 0 255 100
0.100019 -0.0512525 0.834055 0 255 100
0.100259 -0.0275889 0.850447 0 255 100
0.0993283 -0.0353168 0.845464 0 255 100
0.0991512 -0.0536874 0.832457 0 255 100
0.099489 -0.0530119 0.832457 0 255 100
0.0998267 -0.0521676 0.832459 0 255 100
0.0994889 -0.0503099 0.832457 0 255 100
0.0996351 -0.0495391 0.830859 0 255 100
0.099873 -0.0489781 0.835665 0 255 100
0.0996806 -0.0473613 0.834061 0 255 100
0.0993869 -0.0453365 0.837289 0 255 100
0.0993422 -0.0443157 0.834061 0 255 100
0.0999197 -0.0437221 0.838904 0 255 100
0.0993868 -0.0409199 0.837282 0 255 100
0.0992835 -0.0322751 0.842176 0 255 100
0.0998664 -0.0309179 0.847118 0 255 100
0.0986238 -0.0559441 0.830859 0 255 100
0.0988135 -0.0552074 0.832459 0 255 100
0.0988135 -0.0545319 0.832459 0 255 100
0.0984349 -0.0538182 0.829267 0 255 100
0.0986238 -0.0532473 0.830859 0 255 100
0.0993423 -0.052945 0.834063 0 255 100
0.0989609 -0.0522359 0.830859 0 255 100
0.0989608 -0.05173 0.830854 0 255 100
0.0988134 -0.0509854 0.832457 0 255 100
0.099047 -0.0497522 0.837282 0 255 100
0.0992979 -0.0490332 0.830854 0 255 100
0.099239 -0.0491679 0.838905 0 255 100
0.0990471 -0.0483938 0.837289 0 255 100
0.0985169 -0.0477917 0.835671 0 255 100
0.0996807 -0.0468538 0.834063 0 255 100
0.0990471 -0.0461856 0.837287 0 255 100
0.0987074 -0.0453365 0.837289 0 255 100
0.0988559 -0.0445708 0.835673 0 255 100
0.0990908 -0.0441484 0.840541 0 255 100
0.0990907 -0.0436368 0.840539 0 255 100
0.0990907 -0.043125 0.840533 0 255 100
0.0990907 -0.0424429 0.840533 0 255 100
0.0991949 -0.0411799 0.835666 0 255 100
0.0987497 -0.0405675 0.840539 0 255 100
0.0993282 -0.0402904 0.845458 0 255 100
0.0994771 -0.0393563 0.843816 0 255 100
0.0987496 -0.0386916 0.840533 0 255 100
0.0990907 -0.0383506 0.840533 0 255 100
0.0995226 -0.0379634 0.847113 0 255 100
0.0993283 -0.0370319 0.845464 0 255 100
0.0989853 -0.0365175 0.845466 0 255 100
0.0990908 -0.0359637 0.840541 0 255 100
0.0986002 -0.035692 0.842176 0 255 100
0.0987924 -0.0354192 0.843818 0 255 100
0.0987923 -0.0349056 0.843816 0 255 100
0.0989853 -0.0342877 0.845464 0 255 100
0.099179 -0.0336674 0.847118 0 255 100
0.0988353 -0.0326363 0.847118 0 255 100
0.0988353 -0.031949 0.847118 0 255 100
0.0990553 -0.0106768 0.864029 0 255 100
0.0992377 0.00642785 0.878048 0 255 100
0.107459 0.0263423 0.806105 0 255 100
0.110303 0.032608 0.77996 0 255 100
0.109581 0.0796331 0.824529 0 255 100
0.0982867 -0.0505504 0.830859 0 255 100
0.098327 -0.0480381 0.834061 0 255 100
0.0981778 -0.0471136 0.835671 0 255 100
0.0981778 -0.0460965 0.835671 0 255 100
0.098028 -0.0455062 0.837287 0 255 100
0.098218 -0.0420207 0.838912 0 255 100
0.098218 -0.04151 0.83891 0 255 100
0.0980677 -0.0402265 0.840539 0 255 100
0.09845 -0.0393563 0.843816 0 255 100
0.0982585 -0.0375712 0.842174 0 255 100
0.0982585 -0.0368879 0.842174 0 255 100
0.0982584 -0.0356917 0.842169 0 255 100
0.0977722 0.00657924 0.874494 0 255 100
0.108657 0.0794334 0.827676 0 255 100
0.108705 0.0794817 0.822961 0 255 100
0.109165 0.0799974 0.8214 0 255 100
0.0978388 -0.0474527 0.835671 0 255 100
0.0972753 -0.05173 0.830854 0 255 100
0.0970891 -0.0546594 0.829269 0 255 100
0.0974624 -0.0543629 0.832457 0 255 100
0.097762 -0.0524723 0.829267 0 255 100
0.0974625 -0.0518299 0.832459 0 255 100
0.0973118 -0.051422 0.834061 0 255 100
0.0972754 -0.0493707 0.830861 0 255 100
0.0976502 -0.0488837 0.834055 0 255 100
0.0976502 -0.0480381 0.834061 0 255 100
0.0978387 -0.0476219 0.835666 0 255 100
0.0973486 -0.0466953 0.837289 0 255 100
0.0973118 -0.0456693 0.834061 0 255 100
0.0976883 -0.0453365 0.837289 0 255 100
0.0971969 -0.0449137 0.83891 0 255 100
0.0973856 -0.0438074 0.840541 0 255 100
0.0973855 -0.0424429 0.840533 0 255 100
0.0975751 -0.0415008 0.842176 0 255 100
0.0972334 -0.0409881 0.842174 0 255 100
0.0972334 -0.0399631 0.842174 0 255 100
0.0972333 -0.0391086 0.842169 0 255 100
0.0972334 -0.0384255 0.842176 0 255 100
0.0973856 -0.0374983 0.840539 0 255 100
0.0972334 -0.0372295 0.842174 0 255 100
0.0970806 -0.0369598 0.843816 0 255 100
0.107779 0.0797851 0.826102 0 255 100
0.0964492 -0.0560516 0.832457 0 255 100
0.0967526 -0.0541546 0.829267 0 255 100
0.0962641 -0.0534159 0.830861 0 255 100
0.0964492 -0.0530119 0.832457 0 255 100
0.0964492 -0.0519987 0.832457 0 255 100
0.0964492 -0.0514921 0.832459 0 255 100
0.096787 -0.0508166 0.832459 0 255 100
0.0966351 -0.0505762 0.834063 0 255 100
0.0966012 -0.0498763 0.830859 0 255 100
0.0969734 -0.0490533 0.834061 0 255 100
0.0966351 -0.0485458 0.834063 0 255 100
0.0962967 -0.0482074 0.834063 0 255 100
0.0968565 -0.0481473 0.838912 0 255 100
0.096635 -0.0473613 0.834061 0 255 100
0.096787 -0.0467637 0.832459 0 255 100
0.0963295 -0.0466953 0.837289 0 255 100
0.0967036 -0.0461946 0.840541 0 255 100
0.096635 -0.0453309 0.834061 0 255 100
0.0966692 -0.0449968 0.837289 0 255 100
0.0969734 -0.0443157 0.834061 0 255 100
0.0966692 -0.0427886 0.837287 0 255 100
0.0968216 -0.0413497 0.835671 0 255 100
0.0967381 -0.0408966 0.84381 0 255 100
0.0967382 -0.040041 0.843816 0 255 100
0.0969271 -0.0396044 0.845458 0 255 100
0.0963625 -0.0385214 0.840539 0 255 100
0.0964089 -0.00785662 0.8623 0 255 100
0.0964433 -0.00525367 0.865755 0 255 100
0.106584 0.0307811 0.789923 0 255 100
0.107649 0.0329839 0.781368 0 255 100
0.0953103 -0.057396 0.837287 0 255 100
0.0957737 -0.0563894 0.832457 0 255 100
0.095927 -0.0529101 0.830859 0 255 100
0.0960797 -0.0512949 0.829269 0 255 100
0.0959582 -0.0480381 0.834061 0 255 100
0.0959897 -0.0470346 0.837282 0 255 100
0.0960215 -0.044148 0.840533 0 255 100
0.0961435 -0.0427059 0.835671 0 255 100
0.0958354 -0.0406592 0.838912 0 255 100
0.0960921 0.00844542 0.865755 0 255 100
0.106137 0.0313188 0.791362 0 255 100
0.105965 0.0798459 0.819844 0 255 100
0.0955899 -0.0530788 0.830861 0 255 100
0.0957737 -0.0514917 0.832451 0 255 100
0.0956199 -0.049561 0.834063 0 255 100
0.0956199 -0.0434698 0.834063 0 255 100
0.0949157 -0.0539214 0.830859 0 255 100
0.0954067 -0.0519673 0.829262 0 255 100
0.0950982 -0.0509854 0.832457 0 255 100
0.0950982 -0.0499722 0.832457 0 255 100
0.0954654 -0.0496566 0.835673 0 255 100
0.0952814 -0.0553133 0.834055 0 255 100
0.0952528 -0.0539215 0.830859 0 255 100
0.0949157 -0.0532473 0.830859 0 255 100
0.0947605 -0.0525054 0.832459 0 255 100
0.0950982 -0.0518299 0.832459 0 255 100
0.0950982 -0.0513232 0.832457 0 255 100
0.0952528 -0.0505504 0.830859 0 255 100
0.0947873 -0.0496566 0.835673 0 255 100
0.0947873 -0.0489785 0.835673 0 255 100
0.0951547 -0.0474665 0.838912 0 255 100
0.0947873 -0.0457574 0.835671 0 255 100
0.0947872 -0.0445704 0.835666 0 255 100
0.0951832 -0.0442339 0.842169 0 255 100
0.0953394 -0.0429547 0.840539 0 255 100
0.0941984 0.00655277 0.870975 0 255 100
0.0939043 -0.0567864 0.830854 0 255 100
